0,0,0,0,0,0,0,0,0,0,0,0,0,0,0.146,0.263,0.564,0.868,1.056,1.24,1.121,0.976,0.906,0.869,0.828,0.863,0.81,0.743,0.65,0.574,0.433,0.366,0.349,0.338,0.258,0.175,0.062,0,0,0,0,0,0,0,0.051,0.122,0.122,0.123,0.143,0.162,0.174,0.163,0.145,0.117,0.122,0.128,0.115,0.106,0.11,0.11,0.086,0.111,0.143,0.153,0.172,0.182,0.184,0.157,0.115,0.075,0.056,0.05,0.037,0.08,0.085,0.081,0.078,0.079,0.104,0.124,0.126,0.122,0.144,0.16,0.133,0.091,0.061,0.061,0.061,0.13,0.152,0.144,0.152,0.152,0.154,0.148,0.152,0.152,0.149,0.149,0.15,0.103,0.091,0.105,0.109,0.103,0.115,0.126,0.165,0.114,0.103,0.171,0.156,0.105,0.101,0.099,0.15,0.203,0.298,0.393,0.561,0.177,0.152,0.147,0.129,0.122,0.132,0.124,0.127,0.122,0.122,0.122,0.122,0.128,0.122,0.11,0.102,0.091,0.091,0.091,0.091,0.091,0.091,0.091,0.091,0.091,0.091,0.091,0.091,0.091,0.091,0.091,0.091,0.091,0.091,0.091,0.091,0.091,0.091,0.091,0.094,0.115,0.123,0.125,0.124,0.128,0.141,0.14,0.143,0.131,0.135,0.131,0.147,0.103,0.106,0.129,0.168,0.129,0.098,0.078,0.14,0.195,0.234,0.283,0.262,0.302,0.473,0.566,0.537,0.5,0.564,0.551,0.555,0.594,0.536,0.47,0.457,0.452,0.459,0.478,0.497,0.486,0.474,0.384,0.362,0.405,0.422,0.495,0.528,0.523,0.518,0.491,0.368,0.397,0.504,0.423,0.361,0.243,0.262,0.403,0.474,0.451,0.365,0.278,0.371,0.399,0.338,0.443,0.413,0.307,0.325,0.267,0.206,0.207,0.213,0.191,0.16,0.205,0.216,0.236,0.264,0.29,0.274,0.35,0.336,0.332,0.296,0.267,0.256,0.237,0.257,0.247,0.251,0.247,0.219,0.233,0.219,0.214,0.213,0.212,0.167,0.114,0.13,0.205,0.246,0.273,0.274,0.274,0.274,0.264,0.244,0.245,0.26,0.258,0.351,0.548,0.807,1.026,1.166,1.345,1.526,1.594,1.838,1.983,1.709,1.447,1.33,1.334,1.318,1.231,1.291,1.414,1.307,1.065,0.989,0.904,0.822,0.969,1.133,1.13,0.858,0.657,0.5,0.646,0.572,0.479,0.527,0.431,0.383,0.557,0.71,0.799,0.84,0.808,0.775,0.984,1.172,0.981,0.796,0.847,0.691,0.317,0.194,0.207,0.163,0.235,0.226,0.112,0.027,0.014,0.071,0.176,0.263,0.278,0.175,0.177,0.224,0.246,0.343,0.554,0.834,0.896,0.876,0.91,0.855,0.665,0.477,0.452,0.388,0.36,0.418,0.285,0.241,0.321,0.084,0.006,0.027,0.121,0.203,0.153,0,0,0,0,0,0,0,0,0,0,0,0,0,0,0,0,0,0,0,0,0,0,0,0,0,0,0,0,0,-0.005,0.003,0.05,0.07,0.1,0.178,0.189,0.133,0.165,0.157,0.122,0.065,0.129,0.144,0.171,0.225,0.363,0.361,0.269,0.245,0.277,0.311,0.528,0.788,0.887,1.263,0.984,0.853,0.728,0.61,0.295,0.51,0.898,1.164,1.404,1.354,1.116,0.901,0.803,0.661,0.639,0.733,1.223,1.365,1.313,1.389,1.291,0.983,0.933,0.766,0.753,0.782,0.823,1.015,1.198,1.099,1.03,0.902,0.909,0.772,0.924,0.865,1.217,1.272,1.279,1.218,1.185,1.221,1.018,1.065,1.199,1.246,1.399,1.354,1.494,1.511,1.723,1.798,1.782,1.613,1.345,1.153,0.794,0.608,0.308,0.256,0.381,0.265,0.239,0.291,0.385,0.437,0.439,0.383,0.272,0.255,0.273,0.272,0.245,0.2,0.176,0.171,0.186,0.203,0.232,0.256,0.284,0.288,0.187,0.202,0.218,0.276,0.314,0.364,0.391,0.386,0.396,0.383,0.367,0.37,0.35,0.325,0.32,0.362,0.316,0.311,0.293,0.276,0.272,0.28,0.28,0.276,0.289,0.252,0.181,0.161,0.168,0.172,0.165,0.133,0.099,0.093,0.078,0.076,0.05,0.031,0.002,-0.006,0,0,0,0,0,0,0,0,0,0,0,0,0,0,0,0,0.047,0.06,0.002,0,0,0,0,0,0,0,0,0,0,0,0,0,0,0,0,-0.002,0,0,0,0,0,0,0,0,0,0.115,0.251,0.388,0.5,0.366,0,0,0,-0.008,0,0,0,0,0,0,0,0,0,0,0,0,0,0,0,0,0,0,0,0,0,0,0,0,0,0,0,0,0,0.325,0.819,1.241,1.478,1.592,1.796,1.967,2.183,2.403,2.582,2.708,2.656,2.33,1.421,0.601,0.046,0,0,0,0,0,0,0,0,0,0,0,0,0,0,0,0,0,0,0,0,0,0,0,0,0,0,0,0,0,0,0,0,0,0,0,0,0,0,0,0,0,0,0,0,0,0,0,0,0,0,0,0,0,0,0,0,0,0,0,0,0,0,0,0,0,0,0,0,0,0,0,0,0,0,0,0,0,0,0,0,0,0,0,0,0,0,0
0,0,0,0,0,0,0,0,0,0,0,0,0.121,0.196,0.547,0.824,1.285,1.268,1.165,1.02,1.132,1.054,0.852,0.774,0.814,0.794,0.717,0.723,0.64,0.483,0.463,0.376,0.316,0.271,0.208,0.105,-0.006,0,0,0,0,0,0,0,0.032,0.101,0.133,0.138,0.15,0.13,0.126,0.136,0.118,0.136,0.121,0.123,0.113,0.095,0.087,0.089,0.086,0.095,0.097,0.114,0.146,0.149,0.13,0.12,0.124,0.073,0.036,0.027,0.032,0.059,0.068,0.07,0.064,0.066,0.074,0.083,0.086,0.14,0.138,0.153,0.18,0.123,0.061,0.081,0.098,0.138,0.147,0.103,0.103,0.125,0.142,0.147,0.15,0.147,0.129,0.13,0.131,0.095,0.075,0.088,0.1,0.1,0.096,0.111,0.135,0.165,0.13,0.123,0.128,0.14,0.12,0.117,0.182,0.223,0.308,0.56,0.515,0.18,0.152,0.125,0.11,0.103,0.146,0.142,0.136,0.124,0.113,0.103,0.105,0.108,0.103,0.094,0.091,0.1,0.092,0.091,0.091,0.091,0.091,0.091,0.091,0.091,0.091,0.091,0.091,0.091,0.091,0.091,0.091,0.091,0.091,0.091,0.091,0.091,0.091,0.091,0.091,0.1,0.103,0.103,0.103,0.103,0.103,0.103,0.104,0.107,0.111,0.12,0.142,0.097,0.109,0.118,0.153,0.135,0.14,0.125,0.122,0.177,0.186,0.198,0.201,0.299,0.339,0.345,0.339,0.398,0.369,0.45,0.45,0.528,0.581,0.448,0.377,0.396,0.433,0.433,0.442,0.443,0.5,0.493,0.516,0.509,0.507,0.516,0.518,0.521,0.518,0.511,0.48,0.516,0.518,0.412,0.318,0.258,0.371,0.318,0.29,0.432,0.439,0.397,0.459,0.472,0.378,0.45,0.432,0.355,0.395,0.338,0.303,0.244,0.205,0.186,0.167,0.196,0.213,0.225,0.272,0.222,0.27,0.349,0.348,0.404,0.383,0.358,0.334,0.317,0.272,0.24,0.231,0.22,0.22,0.25,0.269,0.246,0.233,0.24,0.142,0.137,0.171,0.23,0.262,0.274,0.274,0.274,0.274,0.272,0.266,0.268,0.273,0.354,0.578,0.809,1.033,1.221,1.104,1.309,1.379,1.623,1.333,1.753,1.587,1.525,1.62,1.828,1.571,1.458,1.525,1.304,1.167,1.351,1.139,0.909,1.012,0.875,0.817,1.13,0.884,0.929,0.82,0.812,0.779,0.794,0.779,0.794,0.589,0.666,0.83,0.781,0.901,0.928,0.895,0.762,0.636,0.588,0.258,0.167,0.143,0.126,0.145,0.462,0.498,0.514,0.278,0.088,0,0.09,0.278,0.22,0.257,0.233,0.164,0.245,0.333,0.458,0.623,0.739,0.807,0.808,1.035,1.255,1.154,0.672,0.526,0.399,0.238,0.218,0.186,0.065,-0.007,0,0,0,0,0,0,0,0,0,0,0,0,0,0,0,0,0,0,0,0,0,0,0,0,0,0,0,0,0,0,0,0,0,0,0,-0.003,0.049,0.048,0.079,0.063,0.075,0.078,0.067,0.148,0.152,0.154,0.116,0.106,0.118,0.229,0.3,0.27,0.253,0.232,0.181,0.185,0.415,0.59,1.016,1.557,1.399,1.282,1.028,0.47,0.203,0.171,0.091,0.316,0.938,1.181,1.308,1.256,1.148,0.957,0.792,0.698,0.625,0.911,1.461,2.301,2.342,2.283,1.988,1.612,1.572,1.248,1.148,0.989,1.088,1.059,1.094,1.086,1.061,1.099,0.98,0.911,0.96,0.849,1.042,1.173,1.24,1.223,1.061,0.865,1.027,0.998,1.165,1.283,1.418,1.637,1.517,1.766,1.524,1.559,1.416,1.444,1.299,1.283,0.946,0.741,0.375,0.267,0.328,0.225,0.199,0.285,0.466,0.576,0.524,0.491,0.374,0.244,0.197,0.211,0.217,0.219,0.196,0.163,0.137,0.138,0.16,0.173,0.189,0.177,0.235,0.307,0.345,0.357,0.362,0.391,0.416,0.402,0.384,0.392,0.394,0.385,0.387,0.378,0.374,0.361,0.335,0.312,0.299,0.319,0.315,0.303,0.298,0.293,0.296,0.272,0.23,0.201,0.193,0.157,0.113,0.084,0.072,0.082,0.081,0.051,0.013,0,0,0,0,0,0,0,0,0,0,0,0,0,0,0,0,0,0,0,0,0,0,0,0,0,0,0.008,0,0,0,0.04,0.146,0.25,0.282,0.305,0.367,0.326,0.322,0.401,0.458,0.279,0.014,0,0,0,0,0,0,0,0,0,0,0.035,0.114,0,0,0,0,0,0,0,0,0,0,0,0,0,0,0,0,0,0,0,0,0,0,0,0,0,0,0,0,0,0,0,0,0,0.054,0.526,0.959,1.267,1.55,1.848,2.169,2.274,2.316,2.391,2.403,2.117,1.614,1.066,0.361,0,0,0,0,0,0,0,0,0,0,0,0,0,0,0,0,0,0,0,0,0,0,0,0,0,0,0,0,0,0,0,0,0,0,0,0,0,0,0,0,0,0,0,0,0,0,0,0,0,0,0,0,0,0,0,0,0,0,0,0,0,0,0,0,0,0,0,0,0,0,0,0,0,0,0,0,0,0,0,0,0,0,0,0,0,0,0
0,0,0,0,0,0,0,0,0,0,0,0.049,0.401,0.61,0.812,0.912,0.902,1.381,1.47,1.098,0.915,0.801,0.93,0.613,0.68,0.735,0.737,0.522,0.547,0.576,0.528,0.349,0.3,0.231,0.184,0.026,0,0,0,0,0,0,0,0,-0.002,0.041,0.078,0.099,0.107,0.113,0.106,0.121,0.091,0.101,0.098,0.1,0.09,0.087,0.091,0.095,0.083,0.074,-0.006,0,0.018,0.061,0.079,0.115,0.147,0.208,0.094,0.048,0.037,0.041,0.064,0.094,0.074,0.061,0.066,0.08,0.074,0.152,0.181,0.163,0.158,0.119,0.061,0.11,0.125,0.153,0.151,0.15,0.137,0.113,0.096,0.107,0.114,0.098,0.142,0.152,0.152,0.129,0.107,0.108,0.11,0.106,0.115,0.136,0.128,0.105,0.111,0.124,0.133,0.137,0.128,0.161,0.235,0.276,0.374,0.638,0.549,0.214,0.155,0.106,0.097,0.107,0.132,0.11,0.119,0.126,0.122,0.091,0.091,0.091,0.091,0.091,0.091,0.092,0.091,0.091,0.091,0.091,0.091,0.091,0.091,0.091,0.091,0.091,0.091,0.091,0.091,0.091,0.091,0.091,0.091,0.091,0.091,0.091,0.091,0.091,0.091,0.091,0.091,0.091,0.091,0.091,0.091,0.091,0.091,0.091,0.097,0.096,0.119,0.138,0.148,0.148,0.152,0.144,0.138,0.137,0.114,0.14,0.174,0.216,0.231,0.289,0.2,0.282,0.475,0.465,0.505,0.434,0.471,0.429,0.359,0.431,0.392,0.392,0.389,0.419,0.427,0.471,0.46,0.518,0.518,0.518,0.518,0.518,0.518,0.518,0.518,0.518,0.518,0.492,0.492,0.359,0.294,0.288,0.383,0.301,0.295,0.414,0.497,0.518,0.518,0.518,0.448,0.475,0.457,0.387,0.368,0.39,0.345,0.373,0.295,0.271,0.264,0.239,0.252,0.253,0.268,0.218,0.204,0.331,0.411,0.446,0.425,0.45,0.451,0.431,0.41,0.326,0.295,0.279,0.247,0.256,0.226,0.217,0.211,0.176,0.17,0.204,0.246,0.261,0.279,0.282,0.274,0.283,0.298,0.282,0.279,0.278,0.367,0.424,0.665,0.977,1.101,1.136,1.128,1.183,1.31,1.34,1.182,1.447,1.325,1.225,1.158,1.345,1.267,1.383,1.496,1.36,1.081,1.163,1.189,1.135,1.033,1.098,0.896,0.894,0.909,1.063,0.859,1.045,0.867,0.849,0.784,0.824,0.728,0.781,0.871,0.975,0.897,0.852,0.347,0.027,0,0,0,0,0,0.043,0.356,0.549,0.279,0.13,0.002,0.012,-0.007,0.101,0.165,0.211,0.264,0.287,0.346,0.347,0.446,0.387,0.451,0.494,0.793,0.516,0.548,0.659,0.965,0.701,0.381,0.199,0.018,0,0,0,0,0,0,0,0,0,0,0,0,0,0,0,0,0,0,0,0,0,0,0,0,0,0,0,0,0,0,0,0,0,0,0,0,0,0,0,0.011,0.046,0.051,0.061,0.063,0.061,0.061,0.061,0.081,0.085,0.061,0.092,0.151,0.104,0.208,0.379,0.534,0.234,0.091,0.101,0.209,0.276,0.328,0.82,1.432,1.466,1.282,1.877,0.684,0.236,0.213,0.026,0.062,0.377,0.84,1.213,1.586,1.899,1.688,1.281,0.986,0.91,1.174,0.911,1.009,1.451,1.414,1.587,2.319,2.401,2.304,1.949,1.448,1.166,1.206,1.332,1.224,1.138,1.128,1.077,1.061,0.947,0.982,1.026,1.239,1.184,1.436,1.461,1.34,1.281,1.36,1.366,1.234,1.134,1.41,1.39,1.539,1.596,1.424,1.186,1.052,0.981,1.224,1.139,0.695,0.658,0.376,0.298,0.244,0.212,0.2,0.18,0.198,0.21,0.202,0.173,0.159,0.177,0.193,0.195,0.181,0.12,0.122,0.126,0.113,0.143,0.155,0.184,0.211,0.269,0.32,0.341,0.349,0.375,0.401,0.419,0.416,0.407,0.406,0.415,0.407,0.393,0.383,0.377,0.364,0.335,0.349,0.34,0.351,0.33,0.327,0.308,0.309,0.312,0.3,0.271,0.226,0.198,0.195,0.155,0.131,0.088,0.067,0.045,0.016,0,0,0,0,0,0,0,0,0,0,0,0,0,0,0,0,0,0,0,0,0,0,0,0,0,0,0,0,0,0,0,0,0.084,0.182,0.252,0.325,0.365,0.389,0.442,0.498,0.531,0.547,0.418,0.14,0,0,0,0,0,0,0,0,0,0,0,0,0,0.006,0,0,0,0,0,0,0,0,0,0,0,0,0,0,0,0,0,0,0,0,0,0,0,0,0,0,0,0,0,0,0,0.156,0.501,0.878,1.298,1.451,1.432,1.124,1.108,1.395,1.655,1.599,1.038,0.608,0.143,0,0,0,0,0,0,0,0,0,0,0,0,0,0,0,0,0,0,0,0,0,0,0,0,0,0,0,0,0,0,0,0,0,0,0,0,0,0,0,0,0,0,0,0,0,0,0,0,0,0,0,0,0,0,0,0,0,0,0,0,0,0,0,0,0,0,0,0,0,0,0,0,0,0,0,0,0,0,0,0,0,0,0,0,0,0,0
0,0,0,0,0,0,0,0,0,0,0,0.025,0.331,0.666,0.626,0.656,1.072,1.331,1.11,0.842,0.829,0.634,0.478,0.496,0.366,0.481,0.442,0.544,0.449,0.357,0.261,0.264,0.287,0.319,0.177,0.03,0,0,0,0,0,0,0,0,0.01,0.045,0.071,0.095,0.113,0.114,0.105,0.117,0.096,0.089,0.076,0.085,0.082,0.075,0.059,0.05,0.036,0.021,0,0,0,0,-0.007,0.034,0.086,0.098,0.103,0.071,0.058,0.102,0.096,0.079,0.077,0.078,0.081,0.081,0.103,0.163,0.183,0.168,0.146,0.119,0.096,0.129,0.142,0.156,0.152,0.152,0.154,0.151,0.122,0.145,0.147,0.151,0.148,0.152,0.152,0.121,0.118,0.11,0.105,0.11,0.108,0.111,0.128,0.115,0.115,0.113,0.144,0.149,0.158,0.234,0.271,0.319,0.418,0.62,0.47,0.253,0.162,0.106,0.091,0.093,0.092,0.091,0.091,0.091,0.093,0.091,0.091,0.091,0.091,0.091,0.091,0.091,0.091,0.091,0.091,0.077,0.073,0.086,0.091,0.091,0.091,0.091,0.091,0.091,0.091,0.091,0.091,0.091,0.091,0.091,0.091,0.091,0.091,0.091,0.091,0.091,0.091,0.093,0.091,0.091,0.091,0.091,0.097,0.097,0.109,0.103,0.128,0.119,0.115,0.126,0.115,0.119,0.12,0.116,0.114,0.166,0.295,0.419,0.406,0.309,0.283,0.307,0.349,0.24,0.301,0.362,0.393,0.398,0.334,0.371,0.397,0.399,0.466,0.476,0.49,0.51,0.515,0.518,0.516,0.437,0.436,0.513,0.518,0.518,0.518,0.518,0.518,0.468,0.426,0.435,0.309,0.309,0.433,0.378,0.373,0.492,0.518,0.518,0.52,0.512,0.518,0.51,0.406,0.379,0.346,0.284,0.329,0.358,0.345,0.278,0.329,0.357,0.308,0.327,0.368,0.328,0.255,0.265,0.352,0.4,0.41,0.401,0.38,0.431,0.399,0.364,0.335,0.35,0.389,0.313,0.294,0.313,0.333,0.372,0.345,0.326,0.322,0.303,0.272,0.271,0.304,0.304,0.288,0.267,0.233,0.202,0.316,0.496,0.682,0.979,1.08,0.971,1.212,1.258,1.256,1.219,0.954,1.042,1.31,0.976,0.913,0.869,0.873,1.159,0.993,0.993,0.72,0.828,1.021,1.026,1.054,1.14,0.935,0.932,0.968,1.102,0.972,0.983,0.965,1.149,0.975,0.962,1.013,0.952,0.887,0.895,0.619,0.195,0,0,0,0,0,0,0,0.066,0.288,0.152,0,0,0,0,0.022,0.118,0.254,0.543,0.424,0.318,0.264,0.266,0.333,0.282,0.243,0.281,0.497,0.44,0.378,0.469,0.595,0.232,0,0,0,0,0,0,0,0,0,0,0,0,0,0,0,0,0,0,0,0,0,0,0,0,0,0,0,0,0,0,0,0,0,0,0,0,0,0,0,0,0,0,-0.007,0,0.015,0.037,0.031,0.039,0.035,0.025,0.025,0.032,0.042,0.079,0.496,0.394,0.282,0.338,0.202,0.212,0.201,0.232,0.272,0.418,0.471,0.622,0.821,1.216,1.174,0.736,0.125,0.032,0.002,0.019,0.2,0.536,0.765,0.606,0.326,0.352,0.352,0.412,0.827,1.075,1.155,0.902,1.386,1.41,1.227,1.302,1.733,2.058,2.536,2.938,2.621,1.861,1.707,1.364,1.139,1.193,1.126,1.165,1.196,1.052,1.14,1.076,1.141,1.302,1.021,1.17,1.14,1.199,1.32,1.326,1.317,1.066,1.223,1.158,1.336,1.281,1.242,1.177,1.069,1.04,1.137,1.184,0.791,0.396,0.282,0.441,0.459,0.453,0.396,0.343,0.296,0.276,0.272,0.272,0.249,0.211,0.196,0.166,0.152,0.14,0.151,0.166,0.163,0.16,0.163,0.178,0.211,0.269,0.311,0.332,0.351,0.393,0.43,0.455,0.455,0.454,0.459,0.442,0.43,0.415,0.403,0.377,0.363,0.366,0.371,0.367,0.363,0.33,0.345,0.346,0.34,0.311,0.298,0.277,0.227,0.204,0.192,0.164,0.15,0.106,0.055,0.02,0,0,0,0,0,0,0,0,0,0,0,0,0,0,0,0,0,0,0,0,0,0,0,0,0,0,0,0,0,0,0,0,0.009,0.12,0.164,0.189,0.239,0.271,0.327,0.366,0.412,0.448,0.47,0.449,0.419,0.273,0.139,0.068,0,0,0,0,0,0,0,0,0,0,0,0,0,0,0,0,0,0,0,0,0,0,0,0,0,0,0,0,0,0,0,0,0,0,0,0,0,0,0,0,0,0,0,-0.004,0.178,0.42,0.41,0.285,0.177,0.21,0.756,1.627,1.668,0.749,0.345,0,0,0,0,0,0,0,0,0,0,0,0,0,0,0,0,0,0,0,0,0,0,0,0,0,0,0,0,0,0,0,0,0,0,0,0,0,0,0,0,0,0,0,0,0,0,0,0,0,0,0,0,0,0,0,0,0,0,0,0,0,0,0,0,0,0,0,0,0,0,0,0,0,0,0,0,0,0,0,0,0,0,0,0,0,0,0,0
0,0,0,0,0,0,0,0,0,0,0,0,0.2,0.586,0.497,0.891,1.314,1.143,0.942,0.834,0.719,0.439,0.413,0.323,0.334,0.275,0.375,0.331,0.383,0.344,0.304,0.263,0.181,0.181,0.113,0.045,0.012,-0.002,0,0,0,0,0,0,0.003,0.015,0.04,0.063,0.088,0.087,0.086,0.064,0.04,0.022,0.014,0.013,0.011,0.004,0.002,0.035,0.044,0.09,0.029,0,0,0,0,0.014,0.047,0.106,0.148,0.137,0.167,0.176,0.134,0.086,0.061,0.052,0.087,0.094,0.107,0.166,0.182,0.18,0.163,0.165,0.147,0.141,0.152,0.148,0.152,0.152,0.152,0.152,0.151,0.152,0.152,0.152,0.152,0.152,0.152,0.111,0.105,0.105,0.11,0.092,0.099,0.112,0.108,0.124,0.104,0.097,0.107,0.127,0.121,0.174,0.269,0.343,0.514,0.694,0.45,0.199,0.155,0.106,0.091,0.091,0.091,0.091,0.091,0.091,0.091,0.091,0.091,0.091,0.091,0.091,0.091,0.091,0.091,0.091,0.091,0.078,0.082,0.09,0.091,0.091,0.091,0.091,0.091,0.091,0.091,0.091,0.091,0.091,0.091,0.091,0.091,0.091,0.091,0.091,0.091,0.091,0.091,0.091,0.091,0.091,0.091,0.091,0.091,0.091,0.092,0.106,0.138,0.136,0.13,0.126,0.122,0.122,0.122,0.122,0.122,0.125,0.284,0.491,0.502,0.453,0.387,0.444,0.449,0.393,0.332,0.404,0.41,0.417,0.387,0.367,0.403,0.377,0.355,0.386,0.417,0.432,0.464,0.405,0.398,0.28,0.32,0.425,0.477,0.518,0.518,0.518,0.518,0.518,0.501,0.511,0.339,0.403,0.51,0.404,0.514,0.518,0.518,0.518,0.507,0.489,0.458,0.44,0.371,0.343,0.379,0.414,0.468,0.379,0.332,0.253,0.329,0.373,0.367,0.333,0.33,0.259,0.254,0.283,0.309,0.417,0.389,0.423,0.403,0.355,0.434,0.475,0.5,0.516,0.518,0.511,0.508,0.47,0.445,0.421,0.372,0.33,0.315,0.307,0.32,0.326,0.31,0.309,0.28,0.184,0.195,0.18,0.233,0.388,0.533,0.829,0.731,1.062,1.16,0.958,0.997,0.863,0.707,0.793,0.898,0.778,0.605,0.659,0.734,0.789,0.766,0.549,0.642,0.637,0.615,0.55,0.537,0.622,0.609,0.743,0.928,0.957,0.952,1.047,0.93,1.035,0.986,0.676,0.851,0.666,0.548,0.206,0.045,0,0,0,0,0,0,0,0,0,0,0,0,0.046,0.111,0.156,0.168,0.193,0.304,0.322,0.206,0.108,0.351,0.352,0.2,0.1,0.053,0.042,0.12,0.42,0.288,0.018,0,0,0,0,0,0,0,0,0,0,0,0,0,0,0,0,0,0,0,0,0,0,0,0,0,0,0,0,0,0,0,0,0,0,0,0,0,0,0,0,0,0,0,-0.005,0,0,0.071,0.04,0.016,0.018,0.017,-0.002,0,0.015,0.133,0.325,0.615,0.62,0.326,0.354,0.224,0.245,0.291,0.25,0.307,0.305,0.459,0.637,0.676,0.664,0.697,0.239,-0.004,-0.001,0.088,0.305,0.83,0.894,0.857,0.254,0,-0.008,0,0.012,0.043,0.286,0.25,0.467,0.814,1.128,1.458,1.689,1.749,2.036,2.528,2.3,2.315,1.926,2.063,1.677,1.298,1.297,1.076,1.14,1.16,1.387,1.033,0.924,1.03,1.069,1.066,1.129,1.165,1.316,1.438,1.284,0.872,0.845,0.974,0.999,1.106,1.041,1.085,1.003,0.968,0.915,1.019,1.149,0.764,0.384,0.42,0.54,0.617,0.564,0.551,0.608,0.528,0.388,0.361,0.334,0.332,0.348,0.313,0.273,0.243,0.248,0.252,0.25,0.214,0.186,0.172,0.168,0.186,0.251,0.295,0.32,0.346,0.375,0.414,0.454,0.475,0.5,0.496,0.467,0.455,0.435,0.417,0.384,0.381,0.394,0.359,0.352,0.361,0.399,0.37,0.336,0.313,0.289,0.311,0.288,0.241,0.205,0.189,0.152,0.132,0.085,0.041,0,0,0,0,0,0,0,0,0,0,0,0,0,0,0,0,0,0,0,0,0,0,0,0,0,0,0,0,0,0,0,0,0,0,0.028,0.082,0.124,0.167,0.198,0.23,0.262,0.27,0.313,0.343,0.33,0.313,0.32,0.306,0.235,0.104,0,0,0,0,0,0,0,0,0,0,0,0,0,0,0,0,0,0,0,0,0,0,0,0,0,0,0,0,0,0,0,0,0,0,0,0,0,0,0,0,0,0,0,0,0,0,0,0,0.079,0.357,0.898,0.903,0.543,0.039,0,0,0,0,0,0,0,0,0,0,0,0,0,0,0,0,0,0,0,0,0,0,0,0,0,0,0,0,0,0,0,0,0,0,0,0,0,0,0,0,0,0,0,0,0,0,0,0,0,0,0,0,0,0,0,0,0,0,0,0,0,0,0,0,0,0,0,0,0,0,0,0,0,0,0,0,0,0,0,0,0,0,0,0,0,0,0,0
0,0,0,0,0,0,0,0,0,0,0,0,0.036,0.298,0.987,1.282,1.221,1.2,1.043,0.731,0.399,0.251,0.265,0.2,0.22,0.23,0.239,0.19,0.214,0.283,0.281,0.235,0.175,0.111,0.064,0.047,0.038,0.019,0.007,0,0,0,0,0,0,-0.006,0.001,0.007,0.017,0.007,-0.006,0,0,0,0,0,0,0,0,0.008,0.019,0.018,0.029,0.009,0.015,0.025,0.024,0.043,0.064,0.115,0.184,0.183,0.161,0.15,0.131,0.124,0.12,0.103,0.105,0.109,0.118,0.15,0.169,0.168,0.168,0.161,0.161,0.156,0.156,0.152,0.168,0.154,0.153,0.17,0.157,0.163,0.152,0.152,0.152,0.152,0.165,0.151,0.141,0.131,0.136,0.127,0.134,0.136,0.158,0.155,0.128,0.128,0.136,0.133,0.129,0.138,0.226,0.346,0.527,0.562,0.293,0.2,0.138,0.115,0.092,0.087,0.084,0.088,0.085,0.077,0.073,0.073,0.073,0.073,0.073,0.073,0.073,0.073,0.073,0.073,0.073,0.08,0.091,0.091,0.077,0.073,0.083,0.083,0.079,0.074,0.079,0.083,0.088,0.091,0.091,0.091,0.091,0.084,0.075,0.073,0.073,0.086,0.091,0.091,0.091,0.091,0.091,0.092,0.108,0.108,0.111,0.113,0.127,0.13,0.133,0.144,0.128,0.128,0.125,0.122,0.122,0.105,0.142,0.282,0.365,0.43,0.51,0.619,0.58,0.561,0.533,0.489,0.503,0.501,0.382,0.401,0.392,0.358,0.352,0.419,0.332,0.328,0.282,0.276,0.347,0.354,0.338,0.359,0.403,0.464,0.466,0.496,0.5,0.497,0.5,0.475,0.403,0.345,0.482,0.48,0.482,0.482,0.479,0.47,0.402,0.374,0.366,0.407,0.382,0.465,0.564,0.692,0.742,0.687,0.635,0.38,0.348,0.257,0.3,0.339,0.348,0.331,0.338,0.325,0.361,0.504,0.504,0.526,0.464,0.421,0.469,0.518,0.545,0.528,0.516,0.507,0.485,0.431,0.437,0.371,0.357,0.321,0.335,0.335,0.327,0.288,0.264,0.265,0.24,0.274,0.257,0.291,0.336,0.405,0.71,0.992,0.681,0.827,0.723,0.871,0.731,0.687,0.654,0.648,0.571,0.457,0.338,0.333,0.532,0.568,0.554,0.459,0.376,0.357,0.379,0.387,0.222,0.278,0.331,0.3,0.446,0.364,0.363,0.49,0.385,0.571,0.509,0.445,0.414,0.202,0.029,0,0,0,0,0,0,0,0,0,0,0,0,0,0.179,0.33,0.431,0.315,0.151,0.073,0.053,0.091,-0.004,-0.009,0.103,0,0,0,0,0,0,0.067,0,0,0,0,0,0,0,0,0,0,0,0,0,0,0,0,0,0,0,0,0,0,0,0,0,0,0,0,0,0,0,0,0,0,0,0,0,0,0,0,0,0,0,0,0.028,0.105,0.045,0,0,0.004,0.02,0.022,0.008,-0.002,0.006,0.054,0.287,0.447,0.535,0.662,0.363,0.159,0.113,0.112,0.145,0.186,0.291,0.29,0.143,0.282,0.498,0.594,0.282,0,0,0.195,0.383,0.858,0.809,0.255,0.319,0.107,0,0,0,0,0,0,0,-0.002,0,0.008,0.034,0.105,0.35,0.311,0.435,0.691,0.963,0.742,1.329,1.297,1.096,1.118,1.238,1.351,1.328,1.401,1.145,1.054,0.964,1.112,0.993,0.937,1.051,1.319,1.315,1.382,1.042,0.901,0.767,0.741,0.79,0.793,0.84,0.789,1.071,0.979,0.776,0.624,0.405,0.418,0.421,0.46,0.47,0.549,0.583,0.577,0.497,0.577,0.589,0.63,0.681,0.644,0.337,0.302,0.295,0.299,0.305,0.292,0.287,0.265,0.24,0.205,0.198,0.229,0.281,0.314,0.353,0.37,0.398,0.433,0.464,0.482,0.493,0.464,0.46,0.456,0.419,0.403,0.432,0.426,0.391,0.383,0.374,0.393,0.353,0.328,0.297,0.299,0.305,0.305,0.279,0.25,0.218,0.172,0.142,0.091,0.025,0,0,0,0,0,0,0,0,0,0,0,0,0,0,0,0,0,0,0,0,0,0,0,0,0,0,0,0,0,0,0,0,0,0,0.001,0.056,0.104,0.125,0.148,0.183,0.208,0.218,0.227,0.252,0.222,0.215,0.215,0.178,0.135,0.07,0,0,0,0,0,0,0,0,0,0.045,0.085,0,0,0,0,0,0,0,0,0,0,0,0,0,0,0,0,0,0,0,0,0,0,0,0,0,0,0,0,0,0,0,0,0,0,0,0,0,0,0.043,0.345,0.316,0.272,0,0,0,0,0,0,0,0,0,0,0,0,0,0,0,0,0,0,0,0,0,0,0,0,0,0,0,0,0,0,0,0,0,0,0,0,0,0,0,0,0,0,0,0,0,0,0,0,0,0,0,0,0,0,0,0,0,0,0,0,0,0,0,0,0,0,0,0,0,0,0,0,0,0,0,0,0,0,0,0,0,0,0,0,0,0,0,0,0
0,0,0,0,0,0,0,0,0,0,0,0,0.058,0.219,0.701,1.087,0.981,0.735,0.64,0.344,0.396,0.185,0.035,0.104,0.17,0.18,0.141,0.094,0.081,0.131,0.181,0.122,0.06,0.041,0.022,0.013,0.001,0.017,0.01,-0.007,0,0,0,0,0,0,0,0,0,0,0,-0.003,0.007,0.032,0.016,-0.006,-0.001,0.003,0.028,0.108,0.126,0.09,0.049,0.044,0.042,0.028,0.043,0.053,0.071,0.147,0.18,0.137,0.127,0.122,0.122,0.132,0.151,0.122,0.132,0.151,0.131,0.132,0.143,0.148,0.15,0.149,0.158,0.172,0.157,0.147,0.161,0.149,0.174,0.16,0.161,0.166,0.152,0.152,0.16,0.167,0.153,0.175,0.175,0.158,0.151,0.152,0.148,0.181,0.202,0.16,0.143,0.142,0.155,0.137,0.126,0.152,0.222,0.347,0.458,0.534,0.268,0.159,0.122,0.121,0.099,0.079,0.088,0.07,0.075,0.068,0.061,0.061,0.061,0.061,0.061,0.061,0.061,0.061,0.059,0.063,0.078,0.079,0.081,0.088,0.089,0.088,0.09,0.089,0.089,0.085,0.09,0.091,0.091,0.091,0.091,0.087,0.086,0.074,0.081,0.08,0.068,0.085,0.091,0.091,0.091,0.091,0.091,0.099,0.121,0.121,0.122,0.122,0.122,0.122,0.124,0.142,0.129,0.128,0.127,0.122,0.123,0.142,0.137,0.128,0.225,0.33,0.55,0.532,0.408,0.341,0.415,0.472,0.38,0.494,0.434,0.417,0.329,0.332,0.348,0.336,0.286,0.287,0.306,0.302,0.335,0.404,0.414,0.375,0.371,0.391,0.432,0.507,0.534,0.532,0.489,0.499,0.475,0.413,0.459,0.457,0.457,0.453,0.404,0.381,0.347,0.346,0.346,0.502,0.67,0.765,0.821,0.905,0.884,0.955,0.778,0.697,0.665,0.632,0.381,0.343,0.375,0.353,0.41,0.364,0.361,0.502,0.493,0.547,0.586,0.52,0.439,0.454,0.44,0.458,0.462,0.476,0.48,0.476,0.451,0.447,0.39,0.405,0.364,0.296,0.294,0.275,0.242,0.297,0.377,0.398,0.392,0.287,0.375,0.401,0.625,0.711,0.66,0.697,0.637,0.749,0.759,0.697,0.634,0.554,0.504,0.429,0.182,0.054,0.074,0.155,0.165,0.288,0.217,0.253,0.108,0.203,0.168,0.208,0.167,0.055,0,-0.006,0.065,0.055,0.094,0.227,0.369,0.519,0.311,0.165,0.093,0.026,0,0,0,0,0,0,0,0,0,0,0.071,0.333,0.822,0.747,0.485,0.17,0,0,0,0,0,0,0,0,0,0,0,0,0,0,0,0,0,0,0,0,0,0,0,0,0,0,0,0,0,0,0,0,0,0,0,0,0,0,0,0,0,0,0,0,0,0,0,0,0,0,0,0,0,0,0,0,0,0,0,0,0,0,0,0,0,-0.007,-0.008,-0.009,0.012,0.152,0.255,0.349,0.269,0.356,0.315,0.14,0.091,0.091,0.099,0.15,0.069,0.043,0.077,0.118,0.11,0.012,0,0,0,0.112,0.401,0.192,0,0,0,0,0,0,0,0,0,0,0,0,0,0,0,0,0,0,0,0,0,0.059,0.415,0.627,0.69,0.941,1.225,1.049,0.752,0.688,1.411,1.29,0.993,1.173,1.339,1.133,0.919,1.383,1.364,1.526,1.468,1.137,1.009,1.023,0.841,0.755,0.837,0.906,0.961,0.906,0.747,0.534,0.382,0.466,0.499,0.567,0.609,0.544,0.528,0.498,0.541,0.598,0.626,0.589,0.521,0.348,0.343,0.429,0.621,0.772,0.737,0.593,0.37,0.3,0.293,0.28,0.242,0.227,0.277,0.309,0.286,0.263,0.276,0.295,0.315,0.357,0.375,0.39,0.406,0.422,0.392,0.393,0.4,0.435,0.436,0.421,0.415,0.379,0.364,0.328,0.305,0.304,0.31,0.302,0.279,0.278,0.228,0.176,0.139,0.091,0.024,0,0,0,0,0,0,0,0,0,0,0,0,0,0,0,0,0,0,0,0,0,0,0,0,0,0,0,0,0,0,0,0,0,0,0.027,0.077,0.102,0.128,0.137,0.151,0.163,0.177,0.193,0.191,0.23,0.213,0.234,0.221,0.188,0.087,-0.007,0,0,0,0,0,0,0,0.037,0.463,0.495,0.193,0,0,0,0,0,0,0,0,0,0,0,0,0,0,0,0,0,0,0,0,0,0,0,0,0,0,0,0,0,0,0,0,0,0,0,0,0,0,0,0,0,0,0,0,0,0,0,0,0,0,0,0,0,0,0,0,0,0,0,0,0,0,0,0,0,0,0,0,0,0,0,0,0,0,0,0,0,0,0,0,0,0,0,0,0,0,0,0,0,0,0,0,0,0,0,0,0,0,0,0,0,0,0,0,0,0,0,0,0,0,0,0,0,0,0,0,0,0,0,0,0,0,0,0,0,0,0,0,0,0
0,0,0,0,0,0,0,0,0,0,0,0,0,0.122,0.749,0.926,0.745,0.625,0.448,0.182,0.022,0,0,0,0.132,0.143,0.092,0.05,0.044,0.071,0.126,0.098,0.069,0.052,0.042,0.025,0.01,0.013,0,0,0,0,0,0,0,0,0,0,-0.006,0.019,0.045,0.065,0.072,0.095,0.09,0.042,0.032,0.052,0.076,0.058,0.059,0.062,0.056,0.047,0.03,0.044,0.078,0.099,0.18,0.187,0.166,0.136,0.117,0.122,0.124,0.119,0.117,0.11,0.133,0.147,0.159,0.147,0.15,0.125,0.141,0.161,0.156,0.158,0.163,0.147,0.134,0.139,0.138,0.133,0.134,0.136,0.138,0.144,0.145,0.143,0.14,0.159,0.16,0.157,0.165,0.156,0.172,0.198,0.223,0.19,0.153,0.151,0.151,0.144,0.14,0.178,0.259,0.313,0.448,0.385,0.26,0.176,0.145,0.126,0.108,0.107,0.095,0.097,0.08,0.07,0.078,0.078,0.078,0.065,0.061,0.061,0.061,0.061,0.051,0.065,0.088,0.091,0.091,0.086,0.091,0.091,0.087,0.091,0.091,0.091,0.091,0.091,0.091,0.091,0.077,0.089,0.082,0.08,0.085,0.075,0.082,0.081,0.081,0.081,0.073,0.073,0.082,0.082,0.103,0.093,0.088,0.092,0.101,0.103,0.111,0.112,0.106,0.115,0.122,0.124,0.115,0.154,0.18,0.135,0.117,0.223,0.377,0.328,0.395,0.452,0.364,0.313,0.335,0.365,0.325,0.278,0.289,0.291,0.251,0.236,0.291,0.334,0.326,0.265,0.284,0.301,0.278,0.354,0.372,0.434,0.538,0.566,0.575,0.535,0.499,0.488,0.488,0.482,0.475,0.414,0.417,0.437,0.399,0.363,0.394,0.44,0.493,0.728,0.866,0.917,1.051,1.06,0.949,0.883,0.779,0.703,0.629,0.558,0.445,0.428,0.344,0.339,0.339,0.356,0.338,0.364,0.546,0.656,0.613,0.562,0.498,0.47,0.48,0.523,0.538,0.536,0.496,0.497,0.442,0.469,0.38,0.339,0.304,0.28,0.274,0.346,0.332,0.539,0.547,0.49,0.49,0.415,0.456,0.515,0.74,0.753,0.752,0.633,0.62,0.736,0.659,0.692,0.378,0.421,0.243,0.058,0,0,0,0,0,0,0,0,0,0,0,0,0,0,0,0,0,0,0.202,0.088,0.119,0.128,0,0.012,0,0,0,0,0,0,0,0,0,0,0,0.232,0.428,0.72,0.845,0.509,0.226,0.009,0,0.086,0.037,0,0,0,0,0,0,0,0,0,0,0,0,0,0,0,0,0,0,0,0,0,0,0,0,0,0,0,0,0,0,0,0,0,0,0,0,0,0,0,0,0,0,0,0,0,0,0,0,0,0,0,0,0,0,0,0,0,0,0,0,0,0,0,0,0,-0.001,0.1,0.104,0.044,0.144,0.167,0.168,0.037,0.054,0.071,0.048,0.107,0.229,0.354,0.544,0.442,0.327,0.154,0,0,0,0,0,0,0,0,0,0,0,0,0,0,0,0,0,0,0,0,0,0,0,0,0,0,0,0,0,0,0.614,1.786,0.81,0.537,0.658,0.244,0.743,1.466,1.332,1.025,1.02,1.137,0.974,1.187,1.341,1.301,1.296,1.285,1.372,1.341,1.133,0.982,1.166,1.462,1.408,1.257,1.002,0.731,0.687,0.496,0.43,0.391,0.497,0.612,0.602,0.488,0.407,0.415,0.378,0.355,0.347,0.359,0.435,0.641,0.819,0.899,0.854,0.666,0.435,0.257,0.252,0.243,0.226,0.218,0.254,0.233,0.237,0.257,0.285,0.313,0.347,0.374,0.369,0.333,0.314,0.327,0.347,0.368,0.406,0.432,0.432,0.412,0.389,0.391,0.366,0.347,0.308,0.279,0.276,0.279,0.263,0.248,0.221,0.18,0.145,0.093,0.029,0,0,0,0,0,0,0,0,0,0,0,0,0,0,0,0,0,0,0,0,0,0,0,0,0,0,0,0,0,0,0,0,-0.009,0.037,0.067,0.097,0.134,0.147,0.151,0.158,0.19,0.205,0.201,0.202,0.229,0.224,0.23,0.223,0.184,0.076,0.013,0.003,0,0,0,0,0,0,0.172,0.525,0.705,0.623,0.289,0,0,0,0,0,0,0,0,0,0,0,0,0,0,0,0,0,0,0,0,0,0,0,0,0,0,0,0,0,0,0,0,0,0,0,0,0,0,0,0,0,0,0,0,0,0,0,0,0,0,0,0,0,0,0,0,0,0,0,0,0,0,0,0,0,0,0,0,0,0,0,0,0,0,0,0,0,0,0,0,0,0,0,0,0,0,0,0,0,0,0,0,0,0,0,0,0,0,0,0,0,0,0,0,0,0,0,0,0,0,0,0,0,0,0,0,0,0,0,0,-0.005,0,0,0,0,0,0,0,0
0,0,0,0,0,0,0,0,0,0,0,0,0,0.102,0.361,0.5,0.399,0.31,0.14,0,0,0,0,0,0.065,0.102,0.055,0.059,0.113,0.111,0.107,0.107,0.073,0.06,0.034,-0.004,0,0,0,0,0,0,0,0,0,-0.006,0.006,-0.003,-0.003,0.013,0.017,0.031,0.06,0.047,0.057,0.045,0.027,0.049,0.085,0.088,0.076,0.059,0.049,0.028,0.021,0.044,0.087,0.16,0.126,0.153,0.163,0.174,0.135,0.114,0.153,0.159,0.118,0.093,0.099,0.12,0.122,0.122,0.127,0.114,0.141,0.149,0.158,0.159,0.153,0.133,0.133,0.135,0.126,0.131,0.125,0.127,0.146,0.135,0.123,0.127,0.133,0.15,0.153,0.143,0.162,0.157,0.157,0.2,0.226,0.171,0.152,0.16,0.167,0.162,0.155,0.192,0.224,0.269,0.356,0.339,0.26,0.192,0.167,0.138,0.131,0.114,0.075,0.093,0.091,0.086,0.082,0.085,0.083,0.079,0.063,0.061,0.061,0.048,0.075,0.09,0.078,0.091,0.091,0.091,0.091,0.091,0.091,0.091,0.091,0.091,0.091,0.091,0.091,0.091,0.087,0.091,0.086,0.091,0.091,0.081,0.087,0.1,0.085,0.094,0.086,0.066,0.063,0.082,0.091,0.078,0.065,0.069,0.086,0.091,0.091,0.091,0.094,0.098,0.103,0.117,0.121,0.146,0.163,0.177,0.135,0.162,0.169,0.252,0.273,0.404,0.396,0.283,0.285,0.322,0.275,0.232,0.272,0.293,0.266,0.292,0.285,0.33,0.278,0.336,0.334,0.313,0.289,0.331,0.43,0.535,0.56,0.571,0.513,0.475,0.506,0.5,0.516,0.498,0.475,0.402,0.357,0.373,0.429,0.443,0.483,0.693,0.69,0.755,0.878,0.956,0.947,0.933,0.825,0.832,0.876,0.985,0.773,0.529,0.52,0.802,0.573,0.478,0.435,0.515,0.423,0.446,0.645,0.678,0.662,0.556,0.613,0.743,0.902,0.984,0.785,0.621,0.693,0.641,0.55,0.555,0.525,0.636,0.793,0.546,0.615,0.484,0.451,0.537,0.572,0.524,0.487,0.513,0.589,0.6,0.65,0.626,0.684,0.709,0.741,0.798,0.682,0.563,0.395,0.174,0.053,0,0,0,0,0,0,0,0,0,0,0,0,0,0,0,0,0,0,0,0,0,0,0,0,0,0,0,0,0,0,0,0,0,0,0.004,0.167,0.325,0.755,0.903,0.373,0.111,0,0,0,0,0,0,0,0,0,0,0,0,0,0,0,0,0,0,0,0,0,0,0,0,0,0,0,0,0,0,0,0,0,0,0,0,0,0,0,0,0,0,0,0,0,0,0,0,0,0,0,0,0,0,0,0,0,0,0,0,0,0,0,0,0,0,0,0,0,0,0,0,0,0,0,0,0.004,-0.005,-0.005,0.008,0.079,0.134,0.273,0.614,0.808,0.567,0.113,-0.005,0,0.014,0,0,0,0,0,0,0,0,0,0,0,0,0,0,0,0,0,0,0,0,0,0,0,0,0,0,0,0,0,0.366,0.772,0.197,0.055,0.252,0.02,0.904,0.653,1.026,1.174,1.244,1.104,1.418,1.107,1.23,1.124,1.446,1.429,1.498,1.491,1.452,1.217,1.475,1.539,1.787,1.647,1.467,0.926,0.798,0.517,0.483,0.442,0.45,0.414,0.399,0.429,0.462,0.456,0.4,0.4,0.382,0.332,0.327,0.328,0.374,0.353,0.275,0.245,0.247,0.241,0.221,0.216,0.226,0.232,0.267,0.302,0.351,0.408,0.44,0.457,0.468,0.5,0.442,0.344,0.389,0.422,0.437,0.433,0.414,0.409,0.417,0.392,0.382,0.392,0.393,0.331,0.312,0.31,0.274,0.287,0.3,0.264,0.203,0.159,0.131,0.085,0.027,0.022,0.018,0,0,0,0,0,0,0,0,0,0,0,0,0,0,0,0,0,0,0,0,0,0,0,0,0,0,0,0,0,0,0.039,0.081,0.121,0.149,0.168,0.184,0.187,0.209,0.232,0.228,0.235,0.234,0.221,0.239,0.23,0.187,0.102,0.163,0.127,0.055,0.001,0,0.001,0.049,0.105,0.345,0.554,0.64,0.716,0.484,0.146,0,0,0,0,0,0,0,0,0,0,0,0,0,0,0,0,0,0,0,0,0,0,0,0,0,0,0,0,0,0,0,0,0,0,0,0,0,0,0,0,0,0,0,0,0,0,0,0,0,0,0,0,0,0,0,0,0,0,0,0,0,0,0,0,0,0,0,0,0,0,0,0,0,0,0,0,0,0,0,0,0,0,0,0,0,0,0,0,0,0,0,0,0,0,0,0,0,0,0,0,0,0,0,0,0,0,0,0,0,0,0,0,0,0,0,0.062,0.076,0.081,0.055,0,0,0,0,0,0,0,0,0
0,0,0,0,0,0,0,0,0,0,0,0,0,0,0,0,0,0,0,0,0,0,0,0,0,0.053,0.113,0.168,0.23,0.178,0.195,0.193,0.156,0.111,0.019,0,0,0,0,0,0,0,0,0,0,-0.006,-0.008,0,0,-0.006,0.022,0.056,0.077,0.065,0.107,0.08,0.05,0.044,0.09,0.092,0.063,0.058,0.061,0.039,0.023,0.063,0.088,0.185,0.196,0.167,0.164,0.177,0.143,0.131,0.137,0.152,0.125,0.116,0.11,0.115,0.122,0.101,0.097,0.106,0.123,0.128,0.121,0.123,0.134,0.111,0.106,0.119,0.11,0.106,0.107,0.105,0.104,0.103,0.104,0.12,0.117,0.133,0.139,0.153,0.159,0.156,0.163,0.172,0.184,0.191,0.159,0.153,0.159,0.168,0.154,0.167,0.194,0.252,0.278,0.318,0.298,0.224,0.199,0.186,0.158,0.127,0.1,0.082,0.088,0.087,0.074,0.071,0.068,0.05,0.042,0.042,0.044,0.037,0.042,0.046,0.054,0.075,0.082,0.086,0.082,0.078,0.073,0.08,0.091,0.091,0.091,0.077,0.073,0.084,0.091,0.091,0.091,0.091,0.091,0.091,0.091,0.095,0.095,0.094,0.091,0.086,0.085,0.083,0.086,0.085,0.078,0.08,0.096,0.111,0.116,0.117,0.126,0.136,0.145,0.149,0.153,0.178,0.172,0.19,0.181,0.163,0.171,0.158,0.155,0.17,0.206,0.229,0.298,0.319,0.329,0.276,0.263,0.317,0.317,0.268,0.253,0.306,0.301,0.375,0.374,0.327,0.33,0.494,0.515,0.497,0.482,0.496,0.528,0.519,0.512,0.488,0.477,0.421,0.382,0.442,0.437,0.538,0.572,0.629,0.744,0.75,0.798,0.759,0.737,0.701,0.826,0.857,0.955,0.989,1.009,1.195,0.99,0.797,0.764,1.014,0.86,0.773,0.783,0.856,0.69,0.697,0.763,0.702,0.645,0.686,0.734,0.935,1.048,0.722,0.854,0.847,0.898,0.938,1.088,1.298,1.081,1.12,0.921,0.664,0.831,0.776,0.609,0.614,0.677,0.658,0.591,0.514,0.528,0.52,0.366,0.603,0.679,0.727,0.919,0.928,0.788,0.45,0.096,0,0,0,0,0,0,0,0,0,0,0,0,0,0,0,0,0,0,0,0,0,0,0,0,0,0,0,0,0,0,0,0,0,0,0.034,0.104,0.169,0.221,0.423,1.128,0.597,0.237,0.055,0.013,0,0,0,0,0,0,0,0,0,0,0,0,0,0,0,0,0,0,0,0,0,0,0,0,0,0,0,0,0,0,0,0,0,0,0,0,0,0,0,0,0,0,0,0,0,0,0,0,0,0,0,0,0,0,0,0,0,0,0,0,0,0,0,0,0,0,0,0,0,0,0,0,0,0,0,0,0,0,0.037,0.085,0.137,0.365,0.492,0.287,0.007,0,-0.006,0.137,0.021,0,0,0,0,0,0,0,0,0,0,0,0,0,0,0,0,0,0,0,0,0,0,0,0,0,0,0,0,0,0,0,0,0.367,0.189,0,0.232,0.099,0.625,1.21,1.539,1.364,1.003,0.88,1.142,1.256,1.4,1.34,1.315,1.478,1.593,1.632,1.463,1.422,1.573,1.878,1.724,1.308,0.922,0.712,0.787,0.605,0.524,0.514,0.584,0.69,0.722,0.635,0.544,0.426,0.35,0.336,0.453,0.483,0.358,0.323,0.319,0.337,0.463,0.603,0.623,0.416,0.257,0.296,0.349,0.418,0.493,0.511,0.524,0.515,0.519,0.474,0.444,0.451,0.498,0.513,0.478,0.434,0.409,0.416,0.391,0.353,0.366,0.391,0.39,0.36,0.343,0.309,0.286,0.314,0.298,0.277,0.261,0.212,0.18,0.144,0.085,0.061,0.039,0.004,0,0,0,0,0,0,0,0,0,0,0,0,0,0,0,0,0,0,0,0,0,0,0,0,0,0,0,0,0,0,0,0.071,0.146,0.185,0.202,0.211,0.229,0.245,0.229,0.225,0.251,0.267,0.294,0.291,0.271,0.218,0.21,0.147,0.072,0.112,0.1,0.113,0.127,0.238,0.369,0.573,0.665,0.617,0.46,0.255,0.086,0,0,0,0,0,0,0,0,0,0,0,0,0,0,0,0,0,0,0,0,0,0,0,0,0,0,0,0,0,0,0,0,0,0,0,0,0,0,0,0,0,0,0,0,0,0,0,0,0,0,0,0,0,0,0,0,0,0,0,0,0,0,0,0,0,0,0,0,0,0,0,0,0,0,0,0,0,0,0,0,0,0,0,0,0,0,0,0,0,0,0,0,0,0,0,0,0,0,0,0,0,0,0,0,0,0,0,0,0,0,0,0,0,0,0.272,0.255,0.108,0,0,0,0,0,0,0,0,0,0
0,0,0,0,0,0,0,0,0,0,0,0,0,0,0,0,0,0,0,0,0,0,0,0,0,0.031,0.112,0.177,0.219,0.221,0.26,0.228,0.173,0.102,0.016,0,0,0,-0.004,0,0,0,0,0,0,0.008,0.029,-0.004,0,0,0.037,0.068,0.084,0.095,0.095,0.167,0.131,0.062,0.063,0.097,0.134,0.085,0.085,0.074,0.064,0.087,0.167,0.22,0.222,0.212,0.176,0.179,0.165,0.167,0.158,0.154,0.122,0.123,0.15,0.133,0.124,0.099,0.109,0.112,0.11,0.116,0.112,0.094,0.114,0.111,0.097,0.091,0.095,0.097,0.096,0.094,0.091,0.096,0.091,0.109,0.098,0.11,0.097,0.116,0.139,0.158,0.178,0.181,0.186,0.182,0.153,0.147,0.169,0.241,0.157,0.173,0.205,0.226,0.261,0.294,0.365,0.253,0.217,0.211,0.182,0.137,0.1,0.111,0.119,0.089,0.062,0.061,0.061,0.037,0.03,0.03,0.044,0.05,0.037,0.033,0.051,0.08,0.068,0.07,0.076,0.064,0.067,0.072,0.086,0.091,0.093,0.068,0.061,0.073,0.091,0.093,0.096,0.096,0.092,0.091,0.091,0.091,0.091,0.091,0.091,0.091,0.091,0.09,0.09,0.091,0.091,0.094,0.097,0.13,0.152,0.147,0.149,0.154,0.155,0.158,0.161,0.199,0.195,0.205,0.213,0.213,0.219,0.16,0.184,0.262,0.187,0.196,0.249,0.289,0.265,0.272,0.271,0.313,0.359,0.277,0.245,0.304,0.344,0.364,0.411,0.354,0.366,0.415,0.462,0.443,0.452,0.51,0.547,0.571,0.531,0.434,0.397,0.41,0.518,0.55,0.802,0.842,0.879,0.9,0.867,0.769,0.788,0.949,0.901,0.804,1.075,0.914,0.842,0.97,0.91,1.241,1.347,1.384,1.24,1.068,1.023,1.07,0.875,1.017,0.855,0.88,0.96,0.869,0.7,0.819,0.853,1.037,0.994,0.891,0.93,1.075,1.2,1.003,0.911,0.861,0.71,0.852,0.767,0.888,0.947,0.953,0.787,0.771,0.692,0.692,0.685,0.546,0.473,0.507,0.798,0.66,0.814,0.75,0.937,0.571,0.174,0,0,0,0,0,0,0,0,0,0,0,0,0,0,0,0,0,0,0,0,0,0,0,0,0,0,0,0,0,0,0,0,0,0,0.108,0.224,0.207,0.212,0.171,0.355,0.845,0.901,0.368,0.172,0.166,0.175,0.06,0,0,0,0,0,0,0,0,0,0,0,0,0,0,0,0,0,0,0,0,0,0,0,0,0,0,0,0,0,0,0,0,0,0,0,0,0,0,0,0,0,0,0,0,0,0,0,0,0,0,0,0,0,0,0,0,0,0,0,0,0,0,0,0,0,0,0,0,0,0,0,0,0,0,0,0,0.007,0.068,0.18,0.204,0.074,0,0,0.034,0.153,0.404,0.274,0.031,0,0,0,0,0,0,0,0,0,0,0,0,0,0,0,0,0,0,0,0,0,0,0,0,0,0,0,0,0,0,0,0,0.104,0.244,0.059,0.095,0,0.057,1.029,1.561,0.998,1.292,1.375,1.304,1.507,1.455,1.693,1.569,1.432,1.464,1.63,1.461,1.322,1.199,1.49,1.744,1.69,1.416,1.044,0.912,0.838,0.777,0.778,0.795,0.827,0.812,0.723,0.761,0.684,0.53,0.382,0.519,0.697,0.529,0.461,0.512,0.658,0.714,0.734,0.71,0.52,0.286,0.36,0.459,0.532,0.538,0.509,0.525,0.538,0.544,0.506,0.492,0.53,0.541,0.503,0.46,0.436,0.418,0.366,0.338,0.347,0.375,0.376,0.357,0.347,0.327,0.3,0.273,0.28,0.266,0.269,0.223,0.203,0.191,0.204,0.14,0.082,0.058,0.031,-0.003,0,0,0,0,0,0,0,0,0,0,0,0,0,0,0,0,0,0,0,0,0,0,0,0,0,0,0,0,0,0,0,0.152,0.182,0.206,0.222,0.234,0.251,0.295,0.317,0.332,0.335,0.32,0.293,0.24,0.191,0.167,0.228,0.2,0.168,0.149,0.16,0.238,0.301,0.372,0.528,0.648,0.634,0.577,0.458,0.294,0.046,0,0,0,0,0,0,0,0,0,0,0,0,0,0,0,0,0,0,0,0,0,0,0,0,0,0,0,0,0,0,0,0,0,0,0,0,0,0,0,0,0,0,0,0,0,0,0,0,0,0,0,0,0,0,0,0,0,0,0,0,0,0,0,0,0,0,0,0,0,0,0,0,0,0,0,0,0,0,0,0,0,0,0,0,0,0,0,0,0,0,0,0,0,0,0,0,0,0,0,0,0,0,0,0,0,0,0,0,0,0,0,0,0.309,0.418,0.203,0.178,0.21,0.195,0.076,-0.003,0,0,0,0,0,0
0,0,0,0,0,0,0,0,0,0,0,0,0,0,0,0,0,0,-0.004,-0.007,0.011,0.011,-0.003,-0.008,0,0,0.04,0.117,0.157,0.164,0.19,0.215,0.195,0.059,-0.002,0,0,0,0,0,0,0,0,0,0.018,0.039,0.085,0.04,-0.004,0.001,0.032,0.107,0.179,0.182,0.112,0.105,0.108,0.086,0.083,0.113,0.138,0.109,0.091,0.089,0.171,0.233,0.227,0.227,0.239,0.252,0.21,0.168,0.156,0.156,0.152,0.133,0.127,0.128,0.165,0.164,0.14,0.114,0.107,0.11,0.108,0.113,0.114,0.108,0.114,0.108,0.077,0.08,0.073,0.074,0.073,0.073,0.081,0.103,0.12,0.12,0.116,0.107,0.08,0.084,0.103,0.152,0.153,0.154,0.149,0.118,0.132,0.168,0.159,0.229,0.161,0.234,0.224,0.232,0.253,0.315,0.316,0.313,0.253,0.227,0.192,0.15,0.135,0.125,0.127,0.105,0.097,0.095,0.078,0.053,0.053,0.074,0.077,0.065,0.069,0.074,0.078,0.074,0.068,0.065,0.062,0.061,0.061,0.067,0.062,0.073,0.08,0.066,0.061,0.066,0.077,0.076,0.078,0.103,0.109,0.112,0.091,0.104,0.109,0.109,0.109,0.109,0.109,0.109,0.109,0.094,0.09,0.136,0.156,0.134,0.134,0.127,0.147,0.16,0.174,0.185,0.2,0.196,0.189,0.207,0.216,0.264,0.295,0.192,0.208,0.351,0.269,0.215,0.197,0.256,0.271,0.25,0.264,0.29,0.328,0.3,0.37,0.411,0.452,0.452,0.437,0.379,0.484,0.407,0.356,0.438,0.416,0.503,0.482,0.539,0.474,0.516,0.5,0.456,0.665,0.911,1.01,0.989,1.05,1.111,0.966,0.916,1.08,1.191,1.307,1.158,1.223,1.224,1.129,1.057,1.138,1.485,1.806,1.203,0.992,1.293,1.438,1.291,0.941,0.825,0.888,0.83,0.817,0.923,1.021,0.913,0.579,0.755,0.931,0.929,1.021,1.138,1.211,1.14,1.17,1.177,1.16,1.014,0.925,0.876,0.947,0.94,0.944,0.781,0.645,0.697,0.647,0.613,0.63,0.674,0.943,1.003,1.019,0.527,0.259,0.005,0,0,0,0,0,0,0,0,0,0,0,0,0,0,0,0,0,0,0,0,0,0,0,0,0,0,0,0,0,0,0,0,0,0,0.043,0.193,0.229,0.442,0.34,0.452,0.696,0.779,0.405,0.297,0.351,0.45,0.15,0,0,0,0,0,0,0,0,0,0,0,0,0,0,0,0,0,0,0,0,0,0,0,0,0,0,0,0,0,0,0,0,0,0,0,0,0,0,0,0,0,0,0,0,0,0,0,0,0,0,0,0,0,0,0,0,0,0,0,0,0,0,0,0,0,0,0,0,0,0,0,0,0,0,0,0,0.144,0.259,0.27,0.221,0.033,0,0,0,0.021,0.127,0.089,0,0,0,0,0,0,0,0,0,0,0,0,0,0,0,0,0,0,0,0,0,0,0,0,0,0,0,0,0,0,0,0,0,0,0,0.075,0.494,0,0,0.069,0.309,1.197,1.008,1.199,1.363,1.075,1.403,1.49,1.456,1.432,1.486,1.59,1.454,1.666,1.535,1.253,1.156,1.559,1.546,1.498,1.209,0.99,0.893,0.788,0.722,0.748,0.785,0.913,0.885,0.749,0.638,0.457,0.53,0.657,0.728,0.538,0.543,0.614,0.621,0.604,0.537,0.48,0.407,0.342,0.507,0.517,0.539,0.496,0.47,0.473,0.495,0.507,0.532,0.559,0.547,0.537,0.517,0.458,0.407,0.383,0.374,0.343,0.372,0.382,0.355,0.323,0.316,0.286,0.273,0.285,0.271,0.274,0.256,0.221,0.2,0.197,0.207,0.171,0.096,0.066,0.04,0.01,0.015,0.03,0.04,0.021,0.002,0,0,0,0,0,0,0,0,0,0,0,0,0,0,0,0,0,0,0,0,0,0,-0.009,0,0,0,0.094,0.205,0.212,0.236,0.266,0.307,0.328,0.323,0.35,0.323,0.298,0.324,0.344,0.323,0.296,0.248,0.242,0.214,0.211,0.228,0.277,0.344,0.408,0.524,0.554,0.591,0.566,0.475,0.419,0.128,0.036,0,0,0,0,0,0,0,0,0,0,0,0,0,0,0,0,0,0,0,0,0,0,0,0,0,0,0,0,0,0,0,0,0,0,0,0,0,0,0,0,0,0,0,0,0,0,0,0,0,0,0,0,0,0,0,0,0,0,0,0,0,0,0,0,0,0,0,0,0,0,0,0,0,0,0,0,0,0,0,0,0,0,0,0,0,0,0,0,0,0,0,0,0,0,0,0,0,0,0,0,0,0,0,0,0,0,0,0,0,0,0.003,0.3,0.377,0.544,0.544,0.609,0.257,0.071,0,0,0,0,0,0,0
0,0,0,0,0,0,0,0,0,0,0,0,0,0,0,0,0,0,0.012,0.024,0.039,0.037,0.008,-0.006,0,0,0,0.06,0.13,0.123,0.137,0.122,0.117,0.019,-0.008,0,0,0,0,0,0,0,0,0,0.064,0.078,0.095,0.075,0.026,0.022,0.038,0.07,0.096,0.101,0.109,0.137,0.154,0.125,0.12,0.155,0.201,0.167,0.108,0.142,0.199,0.225,0.227,0.251,0.239,0.226,0.216,0.186,0.155,0.16,0.167,0.158,0.154,0.173,0.18,0.183,0.18,0.145,0.121,0.104,0.101,0.095,0.092,0.095,0.095,0.072,0.061,0.063,0.061,0.061,0.068,0.063,0.064,0.074,0.122,0.134,0.127,0.143,0.127,0.091,0.135,0.164,0.152,0.121,0.133,0.109,0.129,0.149,0.153,0.161,0.173,0.26,0.267,0.276,0.292,0.347,0.426,0.39,0.299,0.241,0.19,0.159,0.142,0.122,0.123,0.122,0.117,0.11,0.099,0.063,0.105,0.098,0.091,0.068,0.074,0.091,0.091,0.068,0.07,0.069,0.061,0.064,0.064,0.061,0.061,0.065,0.066,0.069,0.071,0.063,0.061,0.061,0.061,0.083,0.091,0.091,0.091,0.114,0.125,0.135,0.138,0.123,0.122,0.122,0.12,0.101,0.1,0.135,0.196,0.158,0.168,0.147,0.146,0.175,0.207,0.227,0.22,0.205,0.214,0.274,0.296,0.3,0.344,0.285,0.193,0.375,0.478,0.297,0.26,0.251,0.265,0.268,0.288,0.293,0.318,0.318,0.435,0.478,0.496,0.513,0.487,0.482,0.485,0.495,0.432,0.432,0.492,0.523,0.551,0.557,0.645,0.668,0.511,0.571,0.872,0.977,1.189,1.25,1.29,1.359,1.337,0.922,1.083,1.343,1.543,1.349,1.09,0.89,0.75,0.932,1.145,1.548,1.473,1.336,1.533,1.527,1.368,1.325,1.124,0.929,0.809,0.794,0.96,1.05,1.252,1.129,0.859,0.89,1.016,0.945,1.026,1.005,1.101,0.976,1.036,1.232,1.137,1.023,0.935,0.935,0.981,1.12,1.149,1.083,0.791,0.85,0.864,0.689,0.63,0.788,1,1.001,0.469,0.081,0,0,0,0,0,0,0,0,0,0,0,0,0,0,0,0,0,0,0,0,0,0,0,0,0,0,0,0,0,0,0,0,0,0,0,0.08,0.171,0.211,0.396,0.624,0.743,0.835,0.775,0.357,0.374,0.472,0.433,0.275,0.121,0.13,0,0,0,0,0,0,0,0,0,0,0,0,0,0,0,0,0,0,0,0,0,0,0,0,0,0,0,0,0,0,0,0,0,0,0,0,0,0,0,0,0,0,0,0,0,0,0,0,0,0,0,0,0,0,0,0,0,0,0,0,0,0,0,0,0,0,0,0,0,0,0,0,0.017,0.239,0.252,0.159,0.051,0,0,0,0,0,0,0,0,0,0,0,0,0,0,0,0,0,0,0,0,0,0,0,0,0,0,0,0,0,0,0,0,0,0,0,0,0,0,0,0,0,0,0,0,0,0.172,0,0.075,0.026,0.096,0.068,0.581,0.859,1.015,1.233,1.253,1.09,1.175,1.14,1.234,1.276,1.374,1.551,1.611,1.36,1.258,1.074,1.333,1.476,1.247,0.949,0.749,0.748,0.708,0.712,0.794,0.754,0.742,0.772,0.705,0.575,0.565,0.645,0.621,0.552,0.639,0.696,0.614,0.551,0.539,0.498,0.485,0.48,0.452,0.456,0.48,0.454,0.456,0.432,0.464,0.479,0.525,0.521,0.543,0.534,0.508,0.442,0.423,0.394,0.362,0.369,0.369,0.364,0.318,0.287,0.29,0.278,0.289,0.293,0.295,0.255,0.241,0.214,0.196,0.165,0.152,0.121,0.097,0.087,0.061,0.081,0.094,0.1,0.102,0.09,0.075,0.056,0.042,0.013,-0.007,0,0,0,0,0,0,0,0,0,0,0,0,0,0,0,0,0,0,-0.009,0,0,0,0.03,0.194,0.243,0.262,0.269,0.289,0.305,0.334,0.351,0.369,0.375,0.351,0.402,0.374,0.33,0.271,0.273,0.311,0.307,0.345,0.365,0.38,0.429,0.481,0.481,0.492,0.448,0.358,0.29,0.085,-0.001,0,0,0,0,0,0,0,0,0,0,0,0,0,0,0,0,0,0,0,0,0,0,0,0,0,0,0,0,0,0,0,0,0,0,0,0,0,0,0,0,0,0,0,0,0,0,0,0,0,0,0,0,0,0,0,0,0,0,0,0,0,0,0,0,0,0,0,0,0,0,0,0,0,0,0,0,0,0,0,0,0,0,0,0,0,0,0,0,0,0,0,0,0,0,0,0,0,0,0,0,0,0,0,0,0,0,0,0,0,0,0.046,0.113,0.392,0.464,0.346,0.179,0.041,0,0,0,0,0,0,0,0
0,0,0,0,0,0,0,0,0,0,0,0,0,0,0,0,0,0,0.029,0.056,0.073,0.032,-0.004,0,-0.009,-0.005,0.003,0.049,0.107,0.053,0.012,0,0,0,0,0,0,0,0,0,0,0,0,0.004,0.073,0.131,0.115,0.109,0.088,0.053,0.054,0.086,0.113,0.129,0.121,0.155,0.162,0.139,0.142,0.158,0.165,0.177,0.16,0.173,0.177,0.185,0.186,0.215,0.238,0.21,0.193,0.222,0.209,0.195,0.202,0.177,0.164,0.161,0.153,0.144,0.148,0.134,0.122,0.127,0.117,0.117,0.122,0.131,0.132,0.115,0.103,0.112,0.09,0.093,0.14,0.141,0.124,0.106,0.08,0.1,0.09,0.131,0.149,0.134,0.125,0.14,0.14,0.117,0.121,0.102,0.125,0.154,0.15,0.145,0.169,0.228,0.311,0.273,0.293,0.335,0.38,0.412,0.319,0.228,0.2,0.172,0.141,0.122,0.125,0.122,0.117,0.12,0.105,0.106,0.118,0.112,0.109,0.099,0.098,0.109,0.105,0.086,0.082,0.092,0.094,0.094,0.1,0.096,0.096,0.096,0.104,0.083,0.081,0.081,0.078,0.081,0.081,0.09,0.094,0.091,0.094,0.116,0.122,0.127,0.142,0.136,0.132,0.123,0.107,0.123,0.139,0.172,0.212,0.212,0.216,0.227,0.182,0.203,0.221,0.26,0.295,0.297,0.303,0.343,0.436,0.479,0.445,0.378,0.392,0.366,0.373,0.348,0.313,0.304,0.351,0.382,0.347,0.371,0.379,0.391,0.345,0.411,0.526,0.498,0.483,0.423,0.427,0.479,0.515,0.499,0.51,0.655,0.621,0.713,0.819,0.707,0.533,0.597,1.097,1.306,1.075,1.156,1.401,1.126,1.026,1.223,1.452,1.375,1.445,1.512,1.554,1.331,1.014,1.019,1.218,1.424,1.343,1.345,1.347,1.241,1.058,1.019,1.001,0.903,0.765,0.819,0.747,0.836,0.933,1.07,1.014,0.9,0.91,0.991,1.013,1.019,1.103,0.984,1.025,1.301,1.197,1.309,1.389,1.179,1.128,1.275,1.22,1.213,1.091,1.144,1.087,0.863,0.87,0.733,0.752,0.337,0.029,0,0,0,0,0,0,0,0,0,0,0,0,0,0,0,0,0,0,0,0,0,0,0,0,0,0,0,0,0,0,0,0,0,0,0,0,0.124,0.168,0.328,0.769,0.966,1.006,0.695,0.212,0.625,1.765,0.431,0.364,0.039,0,0,0,0,0,0,0,0,0,0,0,0,0,0,0,0,0,0,0,0,0,0,0,0,0,0,0,0,0,0,0,0,0,0,0,0,0,0,0,0,0,0,0,0,0,0,0,0,0,0,0,0,0,0,0,0,0,0,0,0,0,0,0,0,0,0,0,0,0,0,0,0.008,-0.005,0.064,0.212,0.456,0.297,0.035,0,0,0,0,0,0,0,0,0,0,0,0,0,0,0,0,0,0,0,0,0,0,0,0,0,0,0,0,0,0,0,0,0,0,0,0,0,0,0,0,0,0,0,0,0,0,0,0,0,0.018,0.062,0.031,0.114,0.364,0.577,1.156,1.061,0.977,0.645,1.239,1.088,1.398,1.294,1.192,1.438,1.353,1.307,1.052,0.898,1.324,1.177,1.061,0.777,0.69,0.701,0.683,0.631,0.701,0.608,0.6,0.585,0.541,0.636,0.702,0.682,0.652,0.631,0.601,0.57,0.592,0.571,0.55,0.657,0.683,0.561,0.487,0.517,0.516,0.435,0.428,0.452,0.441,0.441,0.466,0.474,0.459,0.438,0.467,0.42,0.402,0.379,0.36,0.333,0.328,0.309,0.287,0.298,0.279,0.273,0.264,0.235,0.208,0.197,0.196,0.196,0.178,0.164,0.157,0.123,0.11,0.112,0.106,0.132,0.151,0.151,0.154,0.149,0.124,0.1,0.05,0.021,0.004,-0.007,0,0,0,0,0,0,0,0,0,0,0,0,0,0,-0.006,0,0,0,0,0,0.11,0.206,0.265,0.276,0.285,0.313,0.348,0.347,0.376,0.417,0.457,0.435,0.463,0.476,0.442,0.365,0.371,0.452,0.407,0.411,0.438,0.454,0.459,0.474,0.435,0.482,0.444,0.379,0.339,0.199,0.087,0.019,0,0,0,0,0,0,0,0,0,0,0,0,0,0,0,0,0,0,0,0,0,0,0,0,0,0,0,0,0,0,0,0,0,0,0,0,0,0,0,0,0,0,0,0,0,0,0,0,0,0,0,0,0,0,0,0,0,0,0,0,0,0,0,0,0,0,0,0,0,0,0,0,0,0,0,0,0,0,0,0,0,0,0,0,0,0,0,0,0,0,0,0,0,0,0,0,0,0,0,0,0,0,0,0,0,0,0,0,0,-0.009,0.047,0.124,0.138,0.161,0.149,0.084,0.06,0,0,0,0,0,0,0
0,0,0,0,0,0,0,0,0,0,0,0,0,0,0,0,0,0,0.012,0.046,0.032,0.015,0.006,-0.009,0.032,0.022,-0.002,0.01,0.039,0.038,0,0,0,0,0,0,0,0,0,0,0,0,0,0,0.039,0.096,0.118,0.109,0.102,0.058,0.082,0.115,0.149,0.168,0.15,0.141,0.141,0.141,0.137,0.141,0.154,0.188,0.168,0.166,0.184,0.197,0.213,0.222,0.225,0.231,0.215,0.214,0.224,0.177,0.171,0.157,0.155,0.152,0.152,0.139,0.122,0.122,0.122,0.126,0.122,0.122,0.129,0.142,0.144,0.147,0.148,0.137,0.118,0.114,0.142,0.152,0.152,0.144,0.113,0.082,0.065,0.097,0.102,0.115,0.125,0.148,0.18,0.151,0.138,0.152,0.128,0.137,0.143,0.166,0.21,0.297,0.34,0.304,0.342,0.414,0.494,0.453,0.285,0.234,0.213,0.187,0.151,0.138,0.135,0.128,0.131,0.125,0.119,0.139,0.122,0.122,0.122,0.122,0.122,0.122,0.122,0.098,0.094,0.114,0.12,0.117,0.119,0.122,0.122,0.122,0.122,0.099,0.096,0.102,0.099,0.091,0.094,0.1,0.091,0.094,0.091,0.116,0.122,0.122,0.132,0.146,0.142,0.139,0.141,0.161,0.184,0.21,0.207,0.19,0.244,0.304,0.401,0.362,0.437,0.416,0.373,0.353,0.312,0.34,0.354,0.394,0.564,0.611,0.587,0.529,0.501,0.409,0.369,0.42,0.463,0.553,0.557,0.526,0.433,0.449,0.49,0.534,0.505,0.464,0.461,0.482,0.517,0.537,0.572,0.622,0.653,0.748,0.649,0.939,0.917,0.809,0.61,0.698,1.348,0.772,0.503,1.401,1.811,1.554,1.7,1.682,1.6,1.456,1.288,1.476,1.503,1.39,0.993,0.919,0.997,1.004,1.244,1.184,1.199,1.161,0.945,0.78,0.769,0.744,0.744,0.737,0.725,0.671,0.735,0.83,0.794,0.738,0.744,0.885,0.824,0.64,0.794,0.788,0.848,0.852,1.004,1.127,1.117,1.47,1.26,1.024,1.051,1.174,0.979,0.869,0.864,0.801,0.737,0.445,0.072,0,0,0,0,0,0,0,0,0,0,0,0,0,0,0,0,0,0,0,0,0,0,0,0,0,0,0,0,0,0,0,0,0,0,0,0,0,-0.004,0.106,0.215,0.537,0.954,1.001,0.802,0.215,0.176,0.454,0.938,0.646,0.224,0,0,0,0,0,0,0,0,0,0,0,0,0,0,0,0,0,0,0,0,0,0,0,0,0,0,0,0,0,0,0,0,0,0,0,0,0,0,0,0,0,0,0,0,0,0,0,0,0,0,0,0,0,0,0,0,0,0,0,0,0,0,0,0,0,0,0,0,0,0,0.076,0.216,0.08,0.079,0.025,-0.006,-0.009,0,0,0,0,0,0,0,0,0,0,0,0,0,0,0,0,0,0,0,0,0,0,0,0,0,0,0,0,0,0,0,0,0,0,0,0,0,0,0,0,0,0,0,0,0,0,0,0,0,0,0,0,0.196,0.066,0,0.22,0.147,0.685,0.449,0.932,0.608,0.933,0.775,1.023,1.096,1.112,1.066,1.253,1.316,1.242,1.036,0.957,1.245,1.249,1.083,0.941,0.935,0.851,0.805,0.809,0.754,0.662,0.629,0.608,0.622,0.626,0.646,0.639,0.668,0.726,0.721,0.692,0.606,0.645,0.681,0.654,0.629,0.63,0.641,0.595,0.491,0.446,0.43,0.475,0.445,0.402,0.398,0.398,0.404,0.385,0.403,0.383,0.353,0.334,0.32,0.327,0.308,0.295,0.298,0.288,0.262,0.24,0.204,0.196,0.201,0.203,0.209,0.2,0.185,0.161,0.154,0.156,0.153,0.129,0.111,0.106,0.118,0.127,0.131,0.134,0.121,0.077,0.083,0.084,0.074,0.059,0.019,-0.006,0,0,0,0,0,0,0,0,0,0,0,0,0,0,0,-0.008,0.165,0.255,0.282,0.287,0.317,0.347,0.355,0.359,0.417,0.458,0.471,0.49,0.506,0.514,0.539,0.556,0.562,0.529,0.481,0.486,0.519,0.522,0.571,0.525,0.508,0.483,0.507,0.535,0.498,0.489,0.408,0.31,0.155,0.046,0,0,0,0,0,0,0,0,0,0,0,0,0,0,0,0,0,0,0,0,0,0,0,0,0,0,0,0,0,0,0,0,0,0,0,0,0,0,0,0,0,0,0,0,0,0,0,0,0,0,0,0,0,0,0,0,0,0,0,0,0,0,0,0,0,0,0,0,0,0,0,0,0,0,0,0,0,0,0,0,0,0,0,0,0,0,0,0,0,0,0,0,0,0,0,0,0,0,0,0,0,0,0,0,0,0,0,0,0,0,0,0.18,0.304,0.365,0.301,0.216,0.071,0,0,0,0,0,0
0,0,0,0,0,0,0,0,0,0,0,0,0,0,0,0,0,0,-0.003,0.024,0.012,0,0.016,-0.004,0,0.008,-0.009,0,0,0,0,0,0,0,0,0,0,0,0,0,0,0,-0.001,-0.005,0.01,0.029,0.037,0.054,0.065,0.065,0.095,0.136,0.153,0.163,0.173,0.166,0.18,0.181,0.166,0.15,0.149,0.166,0.198,0.201,0.187,0.217,0.204,0.209,0.212,0.23,0.206,0.212,0.204,0.18,0.168,0.159,0.157,0.153,0.17,0.151,0.139,0.126,0.122,0.122,0.127,0.123,0.146,0.148,0.145,0.151,0.147,0.152,0.152,0.154,0.149,0.161,0.152,0.145,0.131,0.072,0.096,0.127,0.134,0.141,0.145,0.187,0.227,0.192,0.169,0.181,0.171,0.163,0.141,0.146,0.156,0.237,0.471,0.475,0.506,0.564,0.566,0.403,0.296,0.235,0.205,0.185,0.17,0.169,0.166,0.165,0.151,0.131,0.147,0.137,0.136,0.125,0.132,0.124,0.122,0.122,0.122,0.112,0.109,0.118,0.13,0.127,0.135,0.112,0.107,0.103,0.103,0.094,0.091,0.092,0.091,0.091,0.093,0.092,0.091,0.094,0.094,0.114,0.12,0.137,0.151,0.147,0.133,0.153,0.197,0.208,0.222,0.204,0.196,0.195,0.2,0.256,0.393,0.647,0.84,0.682,0.501,0.462,0.359,0.392,0.468,0.481,0.587,0.528,0.792,0.915,0.896,0.678,0.808,0.638,0.696,0.677,0.752,0.83,0.716,0.556,0.589,0.554,0.483,0.518,0.523,0.484,0.568,0.567,0.597,0.668,0.655,0.629,0.648,0.843,0.854,0.702,0.75,0.841,1.233,0.558,0.594,1.407,1.595,1.211,1.817,1.545,1.336,1.297,1.288,1.333,1.192,1.013,0.88,0.879,0.906,0.826,0.843,1.125,0.993,0.954,0.896,0.85,0.78,0.697,0.767,0.813,0.853,0.902,0.925,0.777,0.76,0.619,0.626,0.661,0.522,0.441,0.49,0.486,0.575,0.57,0.619,0.566,0.509,0.92,1.183,1.044,0.788,0.793,0.776,0.676,0.537,0.3,0.061,0.002,0,0,0.051,0.018,0,0,0,0,0,0,0,0,0,0,0,0,0,0,0,0,0,0,0,0,0,0,0,0,0,0,0,0,0,0,0,0,0,0,-0.001,0.124,0.326,0.748,0.941,0.668,0.249,0.204,0.502,0.678,1.054,0.584,0.365,0,0,0,0,0,0,0,0,0,0,0,0,0,0,0,0,0,0,0,0,0,0,0,0,0,0,0,0,0,0,0,0,0,0,0,0,0,0,0,0,0,0,0,0,0,0,0,0,0,0,0,0,0,0,0,0,0,0,0,0,0,0,0,0,0,0,0,0.126,0.041,0.062,0.053,0,0,0,0,-0.005,-0.009,0,0,0,0,0,0,0,0,0,0,0,0,0,0,0,0,0,0,0,0,0,0,0,0,0,0,0,0,0,0,0,0,0,0,0,0,0,0,0,0,0,0,0,0,0,0,0,0,0,0,0,0,0,0.084,0,0,-0.008,0.261,0.39,0.909,0.847,1.055,0.926,1.032,1.144,0.909,0.983,1.064,0.934,1.003,1.054,1.018,0.854,1.184,1.285,1.366,1.122,1.064,0.878,0.741,0.709,0.649,0.686,0.721,0.735,0.815,0.907,0.894,0.87,0.652,0.643,0.624,0.583,0.571,0.593,0.657,0.658,0.69,0.642,0.623,0.619,0.513,0.455,0.469,0.485,0.45,0.432,0.402,0.384,0.45,0.395,0.36,0.334,0.35,0.338,0.327,0.323,0.305,0.3,0.277,0.243,0.219,0.201,0.2,0.213,0.218,0.218,0.211,0.196,0.184,0.179,0.176,0.17,0.162,0.139,0.133,0.137,0.125,0.112,0.11,0.105,0.105,0.103,0.115,0.114,0.098,0.067,0.045,0.042,0.028,0.023,0.014,0.008,0.002,0,0,0,0,0,0,0,0.01,0.109,0.181,0.199,0.242,0.299,0.313,0.332,0.381,0.428,0.441,0.443,0.446,0.458,0.487,0.553,0.589,0.626,0.641,0.586,0.516,0.543,0.6,0.519,0.501,0.58,0.548,0.58,0.526,0.493,0.507,0.531,0.549,0.449,0.299,0.174,0.128,0.069,0.077,0,0,0,0,0,0,0,0,0,0,0,0,0,0,0,0,0,0,0,0,0,0,0,0,0,0,0,0,0,0,0,0,0,0,0,0,0,0,0,0,0,0,0,0,0,0,0,0,0,0,0,0,0,0,0,0,0,0,0,0,0,0,0,0,0,0,0,0,0,0,0,0,0,0,0,0,0,0,0,0,0,0,0,0,0,0,0,0,0,0,0,0,0,0,0,0,0,0,0,0,0,0,0.092,0.057,0.109,0.045,0,0,0.025,0.18,0.121,0.071,0.134,0.301,0.144,0.008,0,0,0,0,0
0,0,0,0,0,0,0,0,0,0,0,0,0,0,0,0,0,0,-0.002,0.006,0.019,0.005,-0.004,-0.008,-0.008,-0.006,-0.004,-0.007,-0.005,0,0,0,0,0,0,0.038,0.081,0.147,0.039,0,0,0.034,0.056,0.03,0.046,0.083,0.129,0.12,0.099,0.11,0.146,0.147,0.202,0.193,0.171,0.173,0.199,0.199,0.177,0.182,0.202,0.213,0.202,0.207,0.213,0.212,0.205,0.223,0.212,0.213,0.224,0.224,0.202,0.181,0.163,0.17,0.16,0.164,0.183,0.159,0.155,0.126,0.114,0.126,0.131,0.124,0.132,0.152,0.152,0.152,0.152,0.152,0.173,0.179,0.154,0.164,0.163,0.156,0.078,0.072,0.118,0.096,0.096,0.133,0.16,0.19,0.263,0.237,0.205,0.235,0.211,0.186,0.158,0.141,0.171,0.336,0.511,0.729,0.764,0.635,0.493,0.359,0.291,0.224,0.209,0.183,0.183,0.182,0.173,0.158,0.15,0.147,0.152,0.151,0.152,0.147,0.15,0.134,0.122,0.122,0.122,0.122,0.122,0.122,0.142,0.134,0.151,0.106,0.091,0.091,0.091,0.091,0.091,0.091,0.091,0.091,0.091,0.091,0.094,0.091,0.11,0.132,0.151,0.176,0.172,0.164,0.177,0.185,0.224,0.24,0.271,0.304,0.272,0.212,0.224,0.278,0.295,0.729,1.031,0.868,0.708,0.608,0.496,0.368,0.437,0.421,0.519,0.754,0.859,1.021,1.24,1.252,1.406,1.203,1.232,1.136,0.965,0.984,1.008,0.77,0.627,0.575,0.477,0.52,0.495,0.497,0.592,0.564,0.604,0.699,0.666,0.731,0.749,0.894,0.893,0.815,0.912,1.085,0.754,0.457,0.809,1.288,0.731,1.234,1.612,1.477,1.453,1.31,1.157,1.038,0.98,0.846,0.892,0.929,0.879,0.884,0.942,1.079,0.979,1.008,0.836,0.824,0.829,0.857,1.002,0.892,0.78,0.73,0.685,0.73,0.783,0.861,0.749,0.734,0.576,0.486,0.317,0.354,0.391,0.484,0.491,0.289,0.265,0.651,0.756,0.785,0.389,0.565,0.476,0.394,0.33,0.424,0.165,0.149,0.174,-0.006,-0.001,-0.009,0,0,0,0,0,0,0,0,0,0,0,0,0,0,0,0,0,0,0,0,0,0,0,0,0,0,0,0,0,0,0,0,0,0,0,0.073,0.259,0.803,1.015,0.489,0.475,0.609,0.665,0.602,0.096,0.037,0.019,0,0,0,0,0,0,0,0,0,0,0,0,0,0,0,0,0,0,0,0,0,0,0,0,0,0,0,0,0,0,0,0,0,0,0,0,0,0,0,0,0,0,0,0,0,0,0,0,0,0,0,0,0,0,0,0,0,0,0,0,0,0,0,0,0,0,0.03,0.024,0.009,0,0,0,0,0,0,0,0,0,0,0,0,0,0,0,0,0,0,0,0,0,0,0,0,0,0,0,0,0,0,0,0,0,0,0,0,0,0,0,0,0,0,0,0,0,0,0,0,0,0,0,0,0,0,0,0,0,0,0,0,0,0,0,0,0,0,0.586,0.937,0.835,0.706,1.235,1.268,0.999,1.024,0.952,0.993,0.971,0.837,0.843,0.859,0.829,0.895,1.073,1.29,1.443,1.443,1.232,1.201,1.009,0.915,0.935,0.872,0.814,0.901,1.022,0.945,0.761,0.645,0.651,0.65,0.645,0.644,0.603,0.615,0.586,0.571,0.566,0.581,0.587,0.506,0.481,0.489,0.514,0.584,0.563,0.507,0.526,0.567,0.384,0.354,0.315,0.304,0.302,0.299,0.291,0.287,0.277,0.261,0.231,0.214,0.213,0.218,0.224,0.223,0.22,0.213,0.206,0.199,0.206,0.204,0.209,0.205,0.212,0.211,0.195,0.174,0.16,0.141,0.14,0.146,0.133,0.109,0.11,0.111,0.1,0.1,0.134,0.127,0.087,0.058,0.026,0.005,0,0,0,0,0,0.02,0.114,0.169,0.179,0.184,0.221,0.239,0.287,0.308,0.344,0.383,0.473,0.501,0.521,0.511,0.483,0.509,0.56,0.61,0.615,0.581,0.548,0.54,0.576,0.589,0.574,0.48,0.571,0.565,0.604,0.529,0.502,0.467,0.432,0.373,0.331,0.293,0.273,0.264,0.287,0.302,0.284,0.165,0.067,0,0,0,0,0,0,0,0,0,0,0,0,0,0,0,0,0,0,0,0,0,0,0,0,0,0,0,0,0,0,0,0,0,0,0,0,0,0,0,0,0,0,0,0,0,0,0,0,0,0,0,0,0,0,0,0,0,0,0,0,0,0,0,0,0,0,0,0,0,0,0,0,0,0,0,0,0,0,0,0,0,0,0,0,0,0,0,0,0,0,0,0,0,0,0,0,0,0,0.054,0.135,0.142,0.132,0.058,0.046,0,0,0,0,0.106,0.269,0.362,0.28,0.079,0.038,0,0,0,0
0,0,0,0,0,0,0,0,0,0,0,0,0,0,0,0,0,0,-0.004,0.001,0.013,0.034,0.035,0.009,0.014,0.02,0.028,0.019,0.01,-0.003,-0.004,0.01,0.037,0.057,0.121,0.148,0.156,0.158,0.084,0.029,0.076,0.101,0.118,0.122,0.125,0.151,0.172,0.146,0.131,0.123,0.137,0.152,0.155,0.157,0.186,0.25,0.236,0.19,0.172,0.168,0.18,0.19,0.188,0.187,0.197,0.187,0.197,0.215,0.205,0.203,0.207,0.19,0.172,0.165,0.167,0.215,0.208,0.206,0.211,0.164,0.152,0.136,0.139,0.145,0.141,0.13,0.139,0.149,0.157,0.181,0.181,0.169,0.199,0.196,0.218,0.203,0.184,0.172,0.158,0.066,0.094,0.103,0.102,0.136,0.15,0.152,0.173,0.211,0.198,0.265,0.243,0.181,0.172,0.169,0.28,0.473,0.602,0.674,0.661,0.485,0.433,0.327,0.276,0.22,0.198,0.183,0.179,0.182,0.167,0.174,0.149,0.159,0.17,0.17,0.17,0.166,0.16,0.166,0.168,0.15,0.152,0.135,0.121,0.122,0.13,0.127,0.14,0.118,0.109,0.109,0.109,0.109,0.109,0.109,0.109,0.104,0.091,0.091,0.091,0.113,0.124,0.163,0.195,0.163,0.15,0.181,0.193,0.181,0.19,0.211,0.212,0.267,0.317,0.344,0.312,0.277,0.296,0.441,0.799,1.213,1.025,0.878,0.691,0.452,0.347,0.409,0.408,0.529,0.684,0.71,0.883,1.078,1.468,1.768,1.844,1.871,1.593,1.546,1.368,1.141,0.792,0.58,0.524,0.484,0.457,0.487,0.515,0.511,0.582,0.716,0.812,0.834,0.735,0.67,0.763,0.896,0.98,0.932,0.485,0.548,1.316,0.788,1.055,1.675,1.507,1.364,1.278,1.087,1.037,0.99,0.975,0.958,1.099,0.996,0.985,1.083,1.193,1.034,1.026,0.96,0.877,0.886,0.753,0.701,0.692,0.628,0.63,0.547,0.538,0.563,0.477,0.514,0.48,0.493,0.455,0.493,0.535,0.522,0.473,0.538,0.658,0.567,0.505,0.594,0.597,0.405,0.341,0.26,0.429,0.883,1.174,1.035,0.419,0.445,0.303,0.006,0.036,-0.004,0.005,0.19,0.21,0.118,0,0,0,0,0.022,0,0,0,0,0,0,0,0,0,0,0,0,0,0,0,0,0,0,0,0,0,0,0,0,0,0,0.056,0.289,0.823,0.697,0.701,0.642,0.491,0.377,0.02,0,0,0,0,0,0,0,0,0,0,0,0,0,0,0,0,0,0,0,0,0,0,0,0,0,0,0,0,0,0,0,0,0,0,0,0,0,0,0,0,0,0,0,0,0,0,0,0,0,0,0,0,0,0,0,0,0,0,0,0,0,0,0,0,0,0,0,0,0,0,0,0,0,0,0,0,0,0,0,0,0,0,0,0,0,0,0,0,0,0,0,0,0,0,0,0,0,0,0,0,0,0,0,0,0,0,0,0,0,0,0,0,0,0,0,0,0,0,0,0,0,0,0,0,0,0,0,0,0,0,0,0,0.047,0.023,0,0,0,0.017,0.266,0.689,0.585,0.661,1.312,1.196,1.041,0.98,0.915,0.955,0.961,0.847,0.82,0.794,0.725,0.734,0.768,1.086,1.29,1.648,1.73,1.569,1.357,1.336,1.209,1.091,1.047,1.007,0.87,0.797,0.707,0.68,0.681,0.661,0.633,0.633,0.64,0.639,0.61,0.611,0.619,0.586,0.571,0.57,0.535,0.529,0.531,0.607,0.529,0.541,0.565,0.481,0.388,0.335,0.287,0.274,0.272,0.271,0.261,0.259,0.267,0.269,0.231,0.223,0.222,0.23,0.236,0.245,0.253,0.25,0.24,0.244,0.242,0.246,0.249,0.248,0.256,0.253,0.237,0.224,0.209,0.199,0.179,0.162,0.148,0.123,0.118,0.126,0.108,0.105,0.11,0.124,0.115,0.08,0.04,0.009,0,0,0,0,0,0,0.037,0.118,0.17,0.189,0.199,0.185,0.234,0.243,0.297,0.336,0.401,0.437,0.492,0.512,0.473,0.491,0.528,0.558,0.563,0.561,0.563,0.581,0.608,0.61,0.572,0.514,0.577,0.549,0.525,0.499,0.466,0.481,0.495,0.516,0.502,0.348,0.264,0.3,0.234,0.141,0.079,0.121,0.126,0.063,0,0,0,0,0,0,0,0,0,0,0,0,0,0,0,0,0,0,0,0,0,0,0,0,0,0,0,0,0,0,0,0,0,0,0,0,0,0,0,0,0,0,0,0,0,0,0,0,0,0,0,0,0,0,0,0,0,0,0,0,0,0,0,0,0,0,0,0,0,0,0,0,0,0,0,0,0,0,0,0,0,0,0,0,0,0,0,0,0,0,0,0,0,0,0.003,0.041,0.096,0.107,0.116,0.099,0.133,0.082,0.019,0,0,0,0,0,0.029,0.232,0.283,0.07,0.027,0.025,0,0,0
0.027,-0.003,0,0,0,0,0,0,0,0,0,0,0,0,-0.007,-0.005,0.004,0.001,0.002,0.013,0.019,0.026,0.031,0.038,0.042,0.064,0.067,0.063,0.065,0.025,0.019,0.048,0.098,0.139,0.133,0.135,0.135,0.103,0.068,0.089,0.113,0.166,0.151,0.136,0.122,0.143,0.126,0.145,0.165,0.134,0.136,0.136,0.187,0.188,0.172,0.184,0.181,0.167,0.164,0.154,0.16,0.154,0.155,0.154,0.161,0.176,0.177,0.186,0.193,0.19,0.19,0.165,0.158,0.157,0.153,0.18,0.237,0.244,0.241,0.168,0.154,0.135,0.152,0.147,0.14,0.142,0.145,0.179,0.187,0.201,0.213,0.171,0.204,0.218,0.244,0.232,0.212,0.177,0.125,0.066,0.109,0.118,0.087,0.082,0.095,0.13,0.143,0.158,0.182,0.205,0.237,0.301,0.193,0.217,0.362,0.526,0.568,0.653,0.571,0.403,0.368,0.344,0.269,0.215,0.202,0.183,0.183,0.183,0.181,0.18,0.18,0.169,0.183,0.186,0.183,0.178,0.201,0.237,0.242,0.227,0.222,0.215,0.184,0.164,0.136,0.122,0.138,0.121,0.112,0.115,0.122,0.122,0.122,0.122,0.122,0.119,0.091,0.091,0.091,0.115,0.127,0.172,0.187,0.145,0.171,0.176,0.155,0.153,0.195,0.203,0.241,0.247,0.24,0.304,0.284,0.301,0.427,0.752,0.829,0.935,1.043,0.801,0.586,0.416,0.341,0.4,0.455,0.505,0.662,0.807,1.084,1.333,1.374,1.392,1.744,1.824,1.914,1.74,1.634,1.638,1.372,1.292,0.896,0.649,0.515,0.53,0.498,0.506,0.525,0.614,0.81,0.806,0.836,0.726,0.895,0.937,0.588,0.457,0.547,0.649,0.963,1.112,1.423,1.356,1.182,1.215,1.123,0.981,0.99,1.082,1.15,0.979,0.943,0.959,0.969,1.104,1.155,1.009,0.759,0.787,0.826,0.765,0.698,0.597,0.566,0.556,0.545,0.468,0.432,0.434,0.287,0.362,0.407,0.315,0.27,0.28,0.334,0.323,0.314,0.417,0.5,0.409,0.348,0.572,0.76,0.554,0.537,0.796,0.933,1.068,1.249,0.948,0.506,0.283,0.26,0.194,0.104,0.107,0.147,0.235,0.104,0.154,0.181,0.032,0,0.011,0.039,0.018,0,0,0,0,0,0,0,0,0,0,0,0,0,0,0,0,0,0,0,0,0,0,0,0,0,0.03,0.245,0.676,0.639,0.469,0.991,0.635,0.196,0,0,0,0,0,0,0,0,0,0,0,0,0,0,0,0,0,0,0,0,0,0,0,0,0,0,0,0,0,0,0,0,0,0,0,0,0,0,0,0,0,0,0,0,0,0,0,0,0,0,0,0,0,0,0,0,0,0,0,0,0,0,0,0,0,0.025,0,0,0,0,0,0,0,0,0,0,0,0,0,0,0,0,0,0,0,0,0,0,0,0,0,0,0,0,0,0,0,0,0,0,0,0,0,0,0,0,0,0,0,0,0,0,0,0,0,0,0,0,0,0,0,0,0,0,0,0,0,0,0,0,0,0,0,0,0.15,0.038,0,0,0,0.122,0.213,0.094,0.739,1.032,1.271,1.076,1.296,1.076,1.038,1.03,1.15,1.037,0.898,0.772,0.974,1.131,1.256,1.32,1.412,1.723,1.842,2.048,1.792,1.398,1.224,1.062,0.967,0.933,0.87,0.794,0.746,0.706,0.691,0.726,0.677,0.652,0.656,0.631,0.617,0.603,0.601,0.628,0.682,0.658,0.608,0.525,0.534,0.505,0.497,0.478,0.427,0.371,0.336,0.316,0.482,0.308,0.282,0.265,0.256,0.268,0.266,0.218,0.217,0.217,0.227,0.242,0.267,0.282,0.284,0.275,0.268,0.278,0.287,0.3,0.293,0.286,0.279,0.266,0.261,0.244,0.233,0.225,0.218,0.196,0.169,0.149,0.141,0.122,0.109,0.103,0.096,0.087,0.07,0.047,0.016,-0.007,0,-0.009,0,0,0,0.012,0.083,0.15,0.172,0.183,0.201,0.258,0.293,0.306,0.33,0.368,0.422,0.436,0.465,0.483,0.516,0.531,0.567,0.59,0.601,0.587,0.599,0.618,0.634,0.64,0.533,0.56,0.524,0.492,0.453,0.447,0.433,0.502,0.519,0.45,0.386,0.249,0.097,0.029,0.279,0.529,0.464,0.292,0.12,0.107,0.065,0,0,0,0,0,0,0,0,0,0,0,0,0,0,0,0,0,0,0,0,0,0,0,0,0,0,0,0,0,0,0,0,0,0,0,0,0,0,0,0,0,0,0,0,0,0,0,0,0,0,0,0,0,0,0,0,0,0,0,0,0,0,0,0,0,0,0,0,0,0,0,0,0,0,0,0,0,0,0,0,0,0,0,0,0,0,0,0,0,0,0,0,0.026,0.092,0.056,0.086,0.06,0.104,0.104,0.071,0,0,0,0,0,0,0.02,0.106,0.273,0.114,0.027,0.05,0.027,-0.003,0
0.02,-0.001,0.007,0.014,0,0,0,0,0,0,0,-0.005,-0.003,0.001,0.007,0.005,0.014,0.021,0.024,0.02,0.047,0.079,0.067,0.036,0.027,0.051,0.057,0.055,0.059,0.043,0.054,0.061,0.071,0.072,0.086,0.087,0.093,0.077,0.075,0.094,0.122,0.131,0.137,0.115,0.107,0.126,0.135,0.137,0.154,0.166,0.175,0.165,0.171,0.176,0.18,0.172,0.16,0.156,0.151,0.147,0.143,0.14,0.15,0.145,0.146,0.153,0.172,0.185,0.174,0.175,0.183,0.202,0.197,0.185,0.195,0.194,0.207,0.222,0.21,0.158,0.144,0.13,0.135,0.144,0.151,0.152,0.15,0.155,0.166,0.19,0.209,0.202,0.21,0.22,0.237,0.218,0.212,0.165,0.053,0.052,0.069,0.071,0.068,0.081,0.106,0.123,0.135,0.169,0.152,0.207,0.246,0.259,0.24,0.253,0.357,0.472,0.567,0.595,0.446,0.366,0.348,0.345,0.296,0.224,0.207,0.196,0.2,0.2,0.2,0.187,0.174,0.167,0.2,0.201,0.204,0.253,0.279,0.298,0.36,0.318,0.319,0.335,0.311,0.243,0.24,0.191,0.181,0.127,0.125,0.124,0.139,0.138,0.133,0.122,0.122,0.12,0.109,0.109,0.107,0.115,0.112,0.136,0.173,0.175,0.203,0.223,0.212,0.188,0.169,0.201,0.253,0.284,0.278,0.303,0.321,0.369,0.535,0.699,0.743,0.816,0.741,0.697,0.685,0.751,0.715,0.983,0.867,0.963,1.357,1.309,1.213,1.142,1.184,1.17,1.355,1.328,1.492,1.532,1.866,2.065,2.045,1.811,1.709,1.159,0.845,0.587,0.483,0.49,0.519,0.583,0.612,0.667,0.782,0.878,0.811,0.495,0.476,0.521,0.871,1.083,1.232,1.254,1.313,1.224,1.116,1.097,1.109,0.932,0.894,1.169,1.156,1.006,0.824,0.901,0.95,0.951,1,0.853,0.685,0.767,0.853,0.697,0.679,0.683,0.595,0.608,0.638,0.698,0.645,0.498,0.423,0.342,0.308,0.305,0.311,0.302,0.272,0.294,0.367,0.384,0.322,0.29,0.293,0.508,0.602,0.571,0.681,0.872,0.913,1.073,1.278,1.075,0.646,0.218,0.241,0.319,0.285,0.345,0.343,0.158,0.063,0.177,0.315,0.106,0,0.075,0.121,0.049,0,0,0,0,0,0,0,0,0,0,0,0,0,0,0,0,0,0,0,0,0,0,0,0,0,-0.006,0.127,0.291,0.445,0.5,0.226,0,0,0,0,0,0,0,0,0,0,0,0,0,0,0,0,0,0,0,0,0,0,0,0,0,0,0,0,0,0,0,0,0,0,0,0,0,0,0,0,0,0,0,0,0,0,0,0,0,0,0,0,0,0,0,0,0,0,0,0,0,0,0,0,0,0,0,0,0,0,0,0,0,0,0,0,0,0,0,0,0,0,0,0,0,0,0,0,0,0,0,0,0,0,0,0,0,0,0,0,0,0,0,0,0,0,0,0,0,0,0,0,0,0,0,0,0,0,0,0,0,0,0,0,0,0,0,0,0,0,0,0,0,0,0,0,0,0.029,0,0,0,0,0,0.144,0.457,0.726,1.101,1.091,1.145,1.083,1.216,1.313,1.301,1.158,1.102,0.997,0.77,1.145,1.372,1.461,1.819,1.759,1.672,1.933,1.954,1.631,1.811,1.508,1.246,1.08,0.942,0.897,0.9,0.832,0.768,0.751,0.712,0.691,0.692,0.671,0.658,0.63,0.625,0.556,0.557,0.64,0.7,0.556,0.5,0.471,0.478,0.445,0.443,0.414,0.454,0.514,0.468,0.328,0.299,0.261,0.257,0.259,0.262,0.228,0.218,0.217,0.22,0.239,0.265,0.295,0.306,0.313,0.317,0.308,0.303,0.305,0.303,0.299,0.306,0.302,0.309,0.272,0.267,0.253,0.241,0.233,0.207,0.189,0.167,0.141,0.126,0.112,0.101,0.087,0.059,0.033,0.008,-0.005,0.005,0,0,0,0,0,0.075,0.15,0.202,0.221,0.236,0.27,0.328,0.367,0.379,0.407,0.428,0.47,0.482,0.536,0.558,0.549,0.581,0.662,0.673,0.669,0.648,0.645,0.645,0.611,0.549,0.593,0.556,0.551,0.51,0.545,0.52,0.441,0.429,0.382,0.332,0.365,0.327,0.355,0.458,0.418,0.368,0.299,0.31,0.287,0.135,0.013,0,0,0,0,0,0,0,0,0,0,0,0,0,0,0,0,0,0,0,0,0,0,0,0,0,0,0,0,0,0,0,0,0,0,0,0,0,0,0,0,0,0,0,0,0,0,0,0,0,0,0,0,0,0,0,0,0,0,0,0,0,0,0,0,0,0,0,0,0,0,0,0,0,0,0,0,0,0,0,0,0,0,0,0,0,0,0,0,0,0,0,0,0.008,0.058,0.111,0.112,0.15,0.123,0.27,0.001,0,0,-0.007,0.211,0.296,0.1,0.093,0.206,0.118,0.08,0.054,0.02,-0.001,0.007
0.037,0.031,0.042,0.052,0.023,0,0,0,0,0,0,-0.003,0,0.005,0.012,0.028,0.042,0.055,0.053,0.052,0.055,0.057,0.075,0.079,0.059,0.039,0.037,0.041,0.051,0.057,0.041,0.074,0.065,0.075,0.081,0.089,0.11,0.1,0.097,0.1,0.1,0.106,0.095,0.093,0.112,0.133,0.141,0.159,0.16,0.159,0.156,0.153,0.15,0.151,0.146,0.141,0.139,0.139,0.136,0.135,0.137,0.133,0.132,0.132,0.141,0.167,0.175,0.166,0.153,0.159,0.193,0.213,0.205,0.21,0.216,0.185,0.169,0.162,0.163,0.155,0.148,0.122,0.129,0.15,0.152,0.152,0.152,0.155,0.152,0.171,0.213,0.213,0.211,0.211,0.208,0.173,0.186,0.102,0.054,0.052,0.076,0.073,0.081,0.141,0.171,0.138,0.15,0.165,0.152,0.217,0.246,0.211,0.201,0.304,0.323,0.433,0.54,0.481,0.4,0.339,0.337,0.321,0.301,0.238,0.208,0.207,0.213,0.213,0.213,0.194,0.16,0.206,0.213,0.222,0.244,0.267,0.31,0.335,0.353,0.359,0.332,0.318,0.319,0.272,0.284,0.246,0.212,0.149,0.135,0.149,0.152,0.156,0.123,0.122,0.119,0.122,0.115,0.122,0.124,0.129,0.122,0.176,0.218,0.21,0.213,0.204,0.21,0.172,0.151,0.188,0.218,0.217,0.228,0.287,0.38,0.501,0.639,0.699,0.857,0.988,0.998,1.149,1.224,1.126,1.367,1.303,1.412,1.357,1.288,1.483,1.253,1.41,1.223,1.19,1.286,1.319,1.494,1.825,2.023,2.061,1.853,1.913,1.871,1.647,1.463,1.103,0.795,0.598,0.538,0.492,0.568,0.809,0.791,0.569,0.479,0.698,0.883,0.968,1.136,1.122,1.204,1.043,0.986,1.021,1.042,1.147,1.12,0.726,0.998,1.077,1.048,0.912,0.871,0.734,0.746,0.764,0.868,0.751,0.719,0.825,0.802,0.677,0.636,0.772,0.696,0.779,0.845,0.843,0.822,0.629,0.569,0.467,0.31,0.31,0.321,0.339,0.285,0.285,0.253,0.205,0.249,0.233,0.273,0.335,0.478,0.614,1.014,1.083,1.114,1.299,1.434,1.022,0.441,0.152,0.123,0.361,0.52,0.414,0.386,0.308,0.164,0.203,0.3,0.105,0,0.109,0.144,0.041,-0.007,0,0,0,0,0,0,0,0,0,0,0,0,0,0,0,0,0,0,0,0,0,0,0,0,0,0.089,0.329,0.508,0.626,0.014,0,0,0,0,0,0,0,0,0,0,0,0,0,0,0,0,0,0,0,0,0,0,0,0,0,0,0,0,0,0,0,0,0,0,0,0,0,0,0,0,0,0,0,0,0,0,0,0,0,0,0,0,0,0,0,0,0,0,0,0,0,0,0,0,0,0,0,0,0,0,0,0,0,0,0,0,0,0,0,0,0,0,0,0,0,0,0,0,0,0,0,0,0,0,0,0,0,0,0,0,0,0,0,0,0,0,0,0,0,0,0,0,0,0,0,0,0,0,0,0,0,0,0,0,0,0,0,0,0,0,0,0,0,0,0,0,0,0,0,0,0,0,0,0,0.041,0.29,0.522,0.793,1.262,1.431,1.281,1.451,1.324,1.219,1.177,1.215,0.86,0.937,1.032,1.233,1.503,1.749,1.683,1.675,1.916,1.975,2.23,2.196,1.729,1.396,1.125,0.997,0.968,0.901,0.856,0.8,0.761,0.72,0.709,0.702,0.673,0.661,0.657,0.65,0.653,0.62,0.539,0.522,0.511,0.53,0.562,0.551,0.556,0.541,0.552,0.514,0.477,0.602,0.651,0.298,0.268,0.255,0.26,0.247,0.22,0.217,0.217,0.231,0.259,0.291,0.318,0.342,0.352,0.348,0.348,0.343,0.345,0.358,0.367,0.355,0.328,0.315,0.313,0.291,0.274,0.261,0.236,0.211,0.18,0.174,0.17,0.155,0.129,0.091,0.063,0.039,0.023,0.007,-0.006,-0.006,0,0,0,0,0.039,0.119,0.189,0.218,0.232,0.285,0.314,0.357,0.395,0.421,0.448,0.48,0.472,0.499,0.565,0.632,0.683,0.604,0.642,0.673,0.658,0.653,0.627,0.589,0.568,0.546,0.574,0.557,0.534,0.561,0.583,0.513,0.447,0.434,0.417,0.404,0.401,0.45,0.449,0.453,0.388,0.41,0.372,0.244,0.156,0.011,0,0,0,0,0,0,0,0,0,0,0,0,0,0,0,0,0,0,0,0,0,0,0,0,0,0,0,0,0,0,0,0,0,0,0,0,0,0,0,0,0,0,0,0,0,0,0,0,0,0,0,0,0,0,0,0,0,0,0,0,0,0,0,0,0,0,0,0,0,0,0,0,0,0,0,0,0,0,0,0,0,0,0,0,0,0,0,0,0,0,0,0,0.073,0.084,0.14,0.145,0.138,0.112,0.053,0,0,0,0,0.195,0.303,0.196,0.118,0.122,0.108,0.117,0.058,0.037,0.031,0.042
0.079,0.074,0.07,0.034,0.005,0,0,0,0,0,-0.003,0,0.011,0.022,0.024,0.065,0.061,0.085,0.116,0.191,0.19,0.185,0.257,0.15,0.085,0.075,0.097,0.073,0.072,0.059,0.068,0.073,0.084,0.074,0.086,0.094,0.11,0.108,0.12,0.128,0.14,0.126,0.14,0.11,0.142,0.163,0.157,0.151,0.143,0.148,0.149,0.147,0.146,0.142,0.138,0.132,0.131,0.134,0.132,0.137,0.127,0.127,0.123,0.131,0.146,0.136,0.159,0.163,0.158,0.189,0.198,0.163,0.182,0.219,0.219,0.21,0.18,0.171,0.164,0.152,0.151,0.137,0.141,0.145,0.148,0.144,0.141,0.141,0.149,0.171,0.209,0.203,0.231,0.155,0.107,0.09,0.064,0.041,0.055,0.06,0.058,0.066,0.088,0.113,0.111,0.122,0.136,0.139,0.149,0.175,0.196,0.163,0.155,0.195,0.251,0.344,0.405,0.364,0.3,0.285,0.302,0.315,0.305,0.275,0.232,0.217,0.216,0.213,0.212,0.176,0.149,0.213,0.213,0.217,0.224,0.287,0.302,0.287,0.275,0.289,0.261,0.286,0.295,0.31,0.291,0.279,0.265,0.275,0.244,0.237,0.203,0.185,0.146,0.132,0.138,0.138,0.134,0.142,0.14,0.132,0.133,0.176,0.183,0.217,0.203,0.197,0.225,0.327,0.465,0.397,0.508,0.531,0.655,0.573,0.613,0.634,0.83,1.198,1.493,1.595,1.572,1.747,1.697,1.717,1.488,1.346,1.478,1.323,1.148,1.098,1.259,1.491,1.734,1.536,1.468,1.434,1.747,1.947,2.046,2.275,2.288,2.152,2.145,2.295,2.065,1.665,1.094,1.056,0.956,0.663,0.567,0.622,0.488,0.556,0.82,0.775,0.726,0.778,0.826,0.866,0.886,0.89,0.896,1.045,1.131,1.136,1.076,0.945,0.883,0.915,0.887,0.855,0.79,0.73,0.715,0.846,0.844,0.864,0.868,0.867,0.828,0.717,0.674,0.683,0.732,0.834,0.923,0.873,0.763,0.779,0.637,0.599,0.43,0.317,0.266,0.301,0.288,0.275,0.242,0.178,0.228,0.21,0.268,0.42,0.691,0.663,0.774,0.849,0.927,1.107,1.191,0.916,0.495,0.137,0.132,0.257,0.304,0.547,0.46,0.294,0.043,0.111,0.245,0.17,0.001,0.117,0.208,0.047,0,0,0,0,0,0,0,0,0,0,0,0,0,0,0,0,0,0,0,0,0,0,0,0,0,0,0.061,0.318,0.391,0.171,0,0,0,0,0,0,0,0,0,0,0,0,0,0,0,0,0,0,0,0,0,0,0,0,0,0,0,0,0,0,0,0,0,0,0,0,0,0,0,0,0,0,0,0,0,0,0,0,0,0,0,0,0,0,0,0,0,0,0,0,0,0,0,0,0,0,0,0,0,0,0,0,0,0,0,0,0,0,0,0,0,0,0,0,0,0,0,0,0,0,0,0,0,0,0,0,0,0,0,0,0,0,0,0,0,0,0,0,0,0,0,0,0,0,0,0,0,0,0,0,0,0,0,0,0,0,0,0,0,0,0,0,0,0,0,0,0,0,0,0,0,0,0,0,0,0,0.028,0.411,0.921,1.288,1.629,1.554,1.34,1.214,1.097,1.058,1.143,0.933,0.94,1.053,1.17,1.283,1.355,1.427,1.659,1.496,1.815,2.022,2.165,2.1,1.971,1.566,1.182,1.011,0.955,0.913,0.855,0.842,0.822,0.776,0.763,0.71,0.716,0.7,0.665,0.67,0.654,0.545,0.51,0.53,0.547,0.554,0.557,0.539,0.543,0.575,0.569,0.526,0.505,0.441,0.501,0.311,0.256,0.263,0.263,0.246,0.225,0.22,0.22,0.247,0.291,0.311,0.341,0.354,0.356,0.38,0.382,0.404,0.415,0.404,0.384,0.38,0.35,0.33,0.308,0.291,0.277,0.25,0.225,0.187,0.181,0.177,0.156,0.121,0.083,0.07,0.059,0.04,0.026,0.014,0,-0.003,0,0,0,0.029,0.112,0.198,0.227,0.249,0.295,0.31,0.334,0.351,0.367,0.387,0.454,0.623,0.667,0.681,0.676,0.638,0.652,0.564,0.561,0.544,0.578,0.569,0.561,0.611,0.658,0.654,0.646,0.596,0.546,0.546,0.561,0.505,0.439,0.476,0.455,0.375,0.38,0.389,0.372,0.338,0.329,0.37,0.36,0.258,0.051,0,0,0,0,0,0,0,0,0,0,0,0,0,0,0,0,0,0,0,0,0,0,0,0,0,0,0,0,0,0,0,0,0,0,0,0,0,0,0,0,0,0,0,0,0,0,0,0,0,0,0,0,0,0,0,0,0,0,0,0,0,0,0,0,0,0,0,0,0,0,0,0,0,0,0,0,0,0,0,0,0,0,0,0,0,0,0,0,0,0,0,0.081,0.194,0.126,0.066,0.072,0.012,0,0,0,0,0,0.034,0.216,0.318,0.184,0.085,0.119,0.119,0.103,0.089,0.079,0.074,0.07
0.07,0.066,0.035,0,0,0,0,0,-0.006,-0.002,0.007,0.016,0.019,0.028,0.037,0.101,0.149,0.214,0.323,0.281,0.273,0.259,0.363,0.295,0.18,0.103,0.118,0.11,0.111,0.125,0.128,0.148,0.151,0.127,0.106,0.122,0.148,0.153,0.159,0.176,0.206,0.185,0.182,0.156,0.143,0.16,0.164,0.164,0.166,0.169,0.165,0.163,0.162,0.159,0.151,0.153,0.16,0.17,0.165,0.14,0.128,0.115,0.116,0.135,0.118,0.127,0.132,0.139,0.16,0.167,0.172,0.152,0.166,0.199,0.22,0.222,0.19,0.183,0.174,0.153,0.14,0.138,0.147,0.148,0.146,0.131,0.132,0.15,0.144,0.165,0.191,0.194,0.199,0.058,0.046,0.059,0.059,0.045,0.051,0.061,0.061,0.066,0.067,0.065,0.062,0.063,0.064,0.064,0.076,0.081,0.135,0.167,0.164,0.158,0.212,0.246,0.336,0.3,0.254,0.249,0.278,0.297,0.309,0.29,0.247,0.22,0.208,0.207,0.194,0.151,0.149,0.206,0.226,0.219,0.216,0.25,0.228,0.229,0.273,0.262,0.25,0.289,0.281,0.311,0.312,0.293,0.319,0.373,0.341,0.307,0.334,0.315,0.234,0.224,0.169,0.152,0.146,0.152,0.152,0.155,0.162,0.153,0.152,0.198,0.286,0.341,0.446,0.687,0.944,1.101,1.07,1.157,1.396,1.173,1.537,1.495,1.409,1.611,2.061,2.056,1.914,2.001,1.482,1.276,1.062,1.453,1.181,1.136,1.044,0.868,0.811,0.959,1.096,1.424,1.53,1.918,1.898,1.903,1.988,1.99,1.878,2.173,1.808,1.946,1.894,1.742,1.481,1.542,1.516,1.082,0.725,0.974,1.068,1.046,0.877,0.724,0.823,0.965,0.947,0.954,0.948,0.949,1.024,1.016,1.134,1.075,0.951,0.914,0.896,0.871,0.794,0.826,0.747,0.794,0.905,0.934,0.935,0.914,0.942,0.875,0.767,0.719,0.859,0.764,0.817,0.877,0.933,0.838,0.795,0.737,0.725,0.633,0.521,0.404,0.297,0.276,0.253,0.178,0.167,0.245,0.276,0.208,0.25,0.556,0.818,0.833,0.49,0.558,0.796,1.132,1.025,0.627,0.368,0.218,0.141,0.155,0.298,0.563,0.279,0.153,0.13,0.257,0.205,0.014,0,0.063,0.188,0.144,0.002,0,0,0,0,0,0,0,0,0,0,0,0,0,0,0,0,0,0,0,0,0,0,0,0,0,0.133,0.393,0.117,0,0,0,0,0,0,0,0,0,0,0,0,0,0,0,0,0,0,0,0,0,0,0,0,0,0,0,0,0,0,0,0,0,0,0,0,0,0,0,0,0,0,0,0,0,0,0,0,0,0,0,0,0,0,0,0,0,0,0,0,0,0,0,0,0,0,0,0,0,0,0,0,0,0,0,0,0,0,0,0,0,0,0,0,0,0,0,0,0,0,0,0,0,0,0,0,0,0,0,0,0,0,0,0,0,0,0,0,0,0,0,0,0,0,0,0,0,0,0,0,0,0,0,0,0,0,0,0,0,0,0,0,0,0,0,0,0,0,0,0,0,0,0,0,0,0,0,0,0.262,0.81,1.108,1.561,1.708,1.677,1.698,1.546,1.589,1.492,1.146,1.155,1.111,1.147,1.262,1.22,1.172,1.446,1.47,1.922,1.63,1.756,2.163,2.251,1.969,1.434,1.186,1.026,0.901,0.824,0.863,0.833,0.775,0.774,0.749,0.706,0.707,0.695,0.67,0.598,0.586,0.555,0.599,0.626,0.536,0.53,0.614,0.635,0.609,0.533,0.493,0.508,0.607,0.665,0.377,0.265,0.257,0.252,0.268,0.255,0.223,0.221,0.23,0.276,0.314,0.351,0.378,0.388,0.408,0.412,0.415,0.406,0.405,0.392,0.385,0.376,0.364,0.347,0.305,0.28,0.275,0.24,0.195,0.167,0.157,0.149,0.123,0.087,0.07,0.079,0.076,0.07,0.056,0.028,-0.005,-0.009,0,0.002,0.058,0.138,0.211,0.239,0.267,0.309,0.32,0.34,0.353,0.374,0.407,0.478,0.505,0.563,0.571,0.605,0.657,0.563,0.525,0.453,0.425,0.715,0.728,0.648,0.621,0.646,0.636,0.644,0.732,0.605,0.583,0.613,0.491,0.411,0.438,0.448,0.415,0.345,0.28,0.205,0.15,0.13,0.103,0.104,0.016,-0.003,0,0,0,0,0,0,0,0,0,0,0,0,0,0,0,0,0,0,0,0,0,0,0,0,0,0,0,0,0,0,0,0,0,0,0,0,0,0,0,0,0,0,0,0,0,0,0,0,0,0,0,0,0,0,0,0,0,0,0,0,0,0,0,0,0,0,0,0,0,0,0,0,0,0,0,0,0,0,0,0,0,0,0,0,0,0,0,0,0,0,0,0,0.017,0,0,0,0,0,0,0,0,0,0,0.025,0.118,0.06,0.085,0.123,0.126,0.092,0.071,0.07,0.066,0.035
0.058,0.044,0.032,0.003,0,0.007,0.009,0.019,0.021,0.022,0.03,0.041,0.062,0.094,0.087,0.12,0.308,0.419,0.426,0.312,0.328,0.315,0.341,0.269,0.264,0.236,0.226,0.302,0.327,0.31,0.339,0.36,0.439,0.326,0.192,0.141,0.153,0.183,0.223,0.23,0.228,0.236,0.286,0.266,0.184,0.2,0.237,0.21,0.21,0.193,0.198,0.187,0.186,0.178,0.174,0.166,0.185,0.198,0.181,0.162,0.149,0.127,0.109,0.116,0.123,0.129,0.145,0.154,0.158,0.168,0.18,0.164,0.154,0.162,0.191,0.196,0.17,0.161,0.161,0.155,0.146,0.132,0.144,0.15,0.142,0.122,0.125,0.135,0.146,0.143,0.156,0.192,0.161,0.046,0.054,0.047,0.058,0.054,0.058,0.058,0.049,0.03,0.027,0.028,0.039,0.059,0.063,0.069,0.109,0.104,0.116,0.154,0.175,0.194,0.221,0.279,0.306,0.317,0.274,0.257,0.272,0.303,0.299,0.284,0.247,0.234,0.226,0.221,0.223,0.176,0.141,0.172,0.222,0.237,0.241,0.221,0.223,0.231,0.296,0.306,0.305,0.29,0.304,0.329,0.342,0.383,0.426,0.468,0.447,0.415,0.444,0.397,0.464,0.367,0.283,0.257,0.226,0.189,0.181,0.18,0.207,0.229,0.206,0.26,0.383,0.445,0.65,1.009,1.252,1.511,1.569,1.409,1.594,1.486,1.717,1.925,1.748,1.867,2.055,2.319,2.318,1.699,1.261,1.551,1.669,1.685,1.681,1.508,1.421,1.487,1.386,1.175,1.291,1.595,1.596,1.847,1.802,2.128,2.26,1.933,1.981,2.005,1.715,1.692,1.505,1.743,1.627,1.611,1.49,1.482,1.422,1.359,1.083,0.787,0.703,0.755,0.883,0.873,0.919,0.982,1.136,1.148,1.122,1.159,1.045,1.075,1.147,1.052,0.963,0.876,0.745,0.733,0.745,0.755,0.891,0.931,0.979,0.932,0.839,0.707,0.696,0.871,0.921,0.944,0.92,0.937,0.966,0.827,0.763,0.688,0.607,0.475,0.378,0.475,0.39,0.282,0.207,0.158,0.191,0.237,0.228,0.258,0.449,0.705,0.654,0.55,0.404,0.662,1.087,1.034,0.838,0.918,0.627,0.338,0.267,0.161,0.231,0.356,0.531,0.536,0.564,0.452,0.114,0,0,0,0.236,0.548,0.159,0,0,0,0,0,0,0,0,0,0,0,0,0,0,0,0,0,0,0,0,0,0,0,0,0,0,0.027,0,0,0,0,0,0,0,0,0,0,0,0,0,0,0,0,0,0,0,0,0,0,0,0,0,0,0,0,0,0,0,0,0,0,0,0,0,0,0,0,0,0,0,0,0,0,0,0,0,0,0,0,0,0,0,0,0,0,0,0,0,0,0,0,0,0,0,0,0,0,0,0,0,0,0,0,0,0,0,0,0,0,0,0,0,0,0,0,0,0,0,0,0,0,0,0,0,0,0,0,0,0,0,0,0,0,0,0,0,0,0,0,0,0,0,0,0,0,0,0,0,0,0,0,0,0,0,0,0,0,0,0,0,0,0,0,0,0,0,0,0,0,0,0,0,0,0,0,0,0.034,0.238,0.522,0.922,1.063,1.078,1.79,1.992,1.996,1.73,1.684,1.308,1.125,1.105,1.193,1.095,1.035,1.077,1.43,1.558,1.849,1.889,1.608,1.955,2.063,1.68,1.267,1.061,0.951,0.889,0.838,0.739,0.742,0.756,0.723,0.693,0.683,0.673,0.629,0.66,0.687,0.609,0.592,0.596,0.537,0.547,0.581,0.619,0.639,0.577,0.521,0.514,0.506,0.558,0.486,0.418,0.282,0.253,0.257,0.274,0.249,0.221,0.221,0.269,0.316,0.359,0.393,0.391,0.388,0.404,0.424,0.415,0.394,0.39,0.389,0.384,0.371,0.358,0.338,0.315,0.301,0.272,0.226,0.184,0.167,0.129,0.097,0.102,0.113,0.127,0.106,0.08,0.048,0.03,0.034,0.022,0.027,0.071,0.149,0.211,0.249,0.254,0.288,0.326,0.34,0.355,0.375,0.382,0.394,0.441,0.504,0.581,0.54,0.565,0.625,0.701,0.544,0.474,0.506,0.537,0.597,0.575,0.507,0.561,0.631,0.57,0.491,0.583,0.504,0.451,0.363,0.281,0.264,0.262,0.292,0.218,0.15,0.034,0,0,0,0.047,0.157,0.024,0,0,0,0,0,0,0,0,0,0,0,0,0,0,0,0,0,0,0,0,0,0,0,0,0,0,0,0,0,0,0,0,0,0,0,0,0,0,0,0,0,0,0,0,0,0,0,0,0,0,0,0,0,0,0,0,0,0,0,0,0,0,0,0,0,0,0,0,0,0,0,0,0,0,0,0,0,0,0,0,0,0,0,0,0,0,0,0,0,0,0,0,0,0,0,0,0,0,0,0,0,0,0.009,0.118,0.137,0.079,0.112,0.094,0.06,0.088,0.058,0.058,0.044,0.032
0,0,0,0,0.001,0.103,0.069,0.035,0.051,0.097,0.158,0.185,0.254,0.438,0.418,0.302,0.25,0.324,0.266,0.3,0.367,0.472,0.428,0.531,0.492,0.468,0.582,0.62,0.411,0.297,0.274,0.318,0.469,0.47,0.483,0.326,0.218,0.193,0.242,0.296,0.335,0.287,0.234,0.215,0.183,0.18,0.21,0.251,0.242,0.212,0.224,0.215,0.219,0.232,0.216,0.222,0.216,0.225,0.213,0.182,0.166,0.154,0.121,0.113,0.125,0.125,0.135,0.145,0.143,0.158,0.18,0.161,0.152,0.152,0.152,0.152,0.152,0.152,0.152,0.152,0.152,0.118,0.152,0.152,0.152,0.126,0.097,0.123,0.136,0.141,0.154,0.187,0.113,0.03,0.03,0.03,0.031,0.031,0.032,0.013,0,0,0,0,0.019,0.031,0.039,0.044,0.081,0.141,0.159,0.155,0.194,0.223,0.245,0.271,0.322,0.368,0.307,0.285,0.311,0.286,0.254,0.245,0.24,0.22,0.2,0.212,0.189,0.161,0.152,0.173,0.201,0.208,0.272,0.305,0.277,0.252,0.298,0.305,0.305,0.299,0.324,0.364,0.378,0.442,0.502,0.511,0.506,0.531,0.53,0.521,0.586,0.615,0.425,0.312,0.305,0.254,0.234,0.223,0.272,0.221,0.213,0.296,0.36,0.435,0.565,0.82,1.321,1.776,1.595,1.536,1.697,1.689,1.549,1.871,2.017,2.028,2.072,2.351,2.484,2.515,2.273,2.14,1.504,1.029,0.826,0.816,0.878,0.874,0.94,1.297,1.684,2.04,2.246,1.857,1.744,2.011,2.23,2.054,2.301,1.918,1.716,1.531,1.377,1.465,1.52,1.404,1.384,1.32,1.109,0.999,0.922,0.74,0.799,0.778,1.02,1.081,1.05,1.109,1.095,1.273,1.252,1.351,1.286,1.305,1.209,0.938,0.903,0.842,0.528,0.639,0.691,0.689,0.688,0.855,0.888,0.804,0.751,0.644,0.657,0.751,0.829,0.893,1.019,0.974,0.892,0.774,0.724,0.583,0.504,0.32,0.225,0.465,0.476,0.293,0.188,0.188,0.218,0.233,0.225,0.258,0.393,0.46,0.481,0.625,0.666,0.739,0.815,1.228,1.358,0.956,0.71,0.69,0.308,0.096,0.152,0.468,0.557,0.65,0.673,0.401,0.066,0,0,0.035,0.292,0.546,0.369,0,0,0,0,0,0,0,0,0,0,0,0,0,0,0,0,0,0,0,0,0,0,0,0,0.02,0,0,0,0,0,0,0,0,0,0,0,0,0,0,0,0,0,0,0,0,0,0,0,0,0,0,0,0,0,0,0,0,0,0,0,0,0,0,0,0,0,0,0,0,0,0,0,0,0,0,0,0,0,0,0,0,0,0,0,0,0,0,0,0,0,0,0,0,0,0,0,0,0,0,0,0,0,0,0,0,0,0,0,0,0,0,0,0,0,0,0,0,0,0,0,0,0,0,0,0,0,0,0,0,0,0,0,0,0,0,0,0,0,0,0,0,0,0,0,0,0,0,0,0,0,0,0,0,0,0,0,0,0,0,0,0,0,0,0,0,0,0,0,0,0,0,0,0,0,0,0.117,0.221,0.281,0.274,0.199,0.306,0.483,1.021,1.505,1.562,1.445,1.568,1.479,1.095,1.304,1.074,1.079,0.948,0.945,1.46,1.22,1.71,1.686,2.001,1.497,1.952,2.105,1.49,1.118,1.018,0.943,0.823,0.761,0.759,0.761,0.731,0.761,0.725,0.723,0.694,0.718,0.719,0.711,0.661,0.621,0.572,0.565,0.617,0.638,0.608,0.594,0.569,0.538,0.489,0.545,0.585,0.621,0.405,0.275,0.248,0.256,0.263,0.223,0.232,0.259,0.317,0.354,0.367,0.369,0.371,0.377,0.395,0.381,0.401,0.41,0.416,0.397,0.374,0.366,0.337,0.343,0.325,0.306,0.281,0.223,0.183,0.156,0.106,0.129,0.163,0.15,0.095,0.078,0.078,0.132,0.217,0.215,0.16,0.17,0.233,0.254,0.269,0.285,0.299,0.353,0.364,0.398,0.421,0.407,0.464,0.5,0.498,0.539,0.547,0.578,0.545,0.643,0.527,0.556,0.451,0.523,0.522,0.411,0.347,0.312,0.299,0.25,0.217,0.182,0.164,0.13,0.136,0.127,0.113,0.096,0.113,0.067,0,0,0,0,0,0.337,0.171,0,0,0,0,0,0,0,0,0,0,0,0,0,0,0,0,0,0,0,0,0,0,0,0,0,0,0,0,0,0,0,0,0,0,0,0,0,0,0,0,0,0,0,0,0,0,0,0,0,0,0,0,0,0,0,0,0,0,0,0,0,0,0,0,0,0,0,0,0,0,0,0,0,0,0,0,0,0,0,0,0,0,0,0,0,0,0,0,0,0,0,0,0,0,0,0,0,0,0,0,0,0,0.009,0.099,0.195,0.021,0,-0.009,0,0,0,0,0,0,0
0,0,0,0.013,0.083,0.096,0.103,0.096,0.132,0.207,0.274,0.325,0.444,0.415,0.376,0.361,0.349,0.244,0.158,0.205,0.33,0.276,0.321,0.367,0.486,0.564,0.581,0.549,0.423,0.382,0.304,0.306,0.302,0.354,0.508,0.606,0.502,0.268,0.258,0.304,0.338,0.297,0.255,0.256,0.269,0.28,0.235,0.217,0.279,0.255,0.237,0.279,0.301,0.282,0.27,0.275,0.257,0.259,0.244,0.225,0.201,0.181,0.159,0.132,0.112,0.119,0.11,0.119,0.122,0.135,0.144,0.15,0.154,0.152,0.145,0.142,0.153,0.15,0.153,0.145,0.152,0.134,0.14,0.138,0.156,0.143,0.118,0.109,0.125,0.145,0.136,0.123,0.039,0.03,0.03,0.03,0.03,0.03,0.03,0.007,0,0,0,0,0.005,0.025,0.03,0.038,0.062,0.102,0.148,0.179,0.185,0.214,0.262,0.295,0.312,0.375,0.306,0.313,0.302,0.246,0.244,0.244,0.22,0.168,0.156,0.148,0.135,0.134,0.148,0.173,0.211,0.282,0.327,0.374,0.388,0.395,0.388,0.345,0.352,0.383,0.412,0.433,0.448,0.483,0.492,0.508,0.562,0.587,0.564,0.602,0.633,0.722,0.738,0.648,0.618,0.509,0.39,0.317,0.338,0.366,0.384,0.399,0.429,0.467,0.53,0.814,1.169,1.272,1.212,1.657,1.764,2.104,2.345,2.29,2.684,2.448,2.117,2.233,2.585,2.017,2.127,2.159,2.007,1.109,1.018,0.979,1.075,1.069,1.122,1.293,1.489,1.826,2.049,2.019,2.022,2.176,2.07,1.996,1.91,1.887,1.85,1.667,1.464,1.396,1.346,1.45,1.522,1.381,1.229,1.069,0.916,0.882,0.927,0.962,1.032,1.127,1.284,1.277,1.381,1.483,1.5,1.664,1.562,1.367,1.109,1.034,1.013,0.881,0.706,0.67,0.592,0.549,0.584,0.664,0.731,0.683,0.655,0.613,0.635,0.761,0.827,0.848,0.921,0.881,0.767,0.678,0.632,0.431,0.358,0.299,0.273,0.373,0.406,0.302,0.258,0.257,0.265,0.211,0.195,0.226,0.345,0.364,0.359,0.374,0.417,0.565,0.572,0.717,0.578,0.454,0.246,0.154,0.083,0.09,0.166,0.512,0.587,0.701,0.574,0.371,0.036,0,0,0,0.333,0.164,0.3,0.041,0,0,0,0,0,0,0,0,0,0,0,0,0,0,0,0,0,0,0,0,0,0,0,0,0,0,0,0,0,0,0,0,0,0,0,0,0,0,0,0,0,0,0,0,0,0,0,0,0,0,0,0,0,0,0,0,0,0,0,0,0,0,0,0,0,0,0,0,0,0,0,0,0,0,0,0,0,0,0,0,0,0,0,0,0,0,0,0,0,0,0,0,0,0,0,0,0,0,0,0,0,0,0,0,0,0,0,0,0,0,0,0,0,0,0,0,0,0,0,0,0,0,0,0,0,0,0,0,0,0,0,0,0,0,0,0,0,0,0,0,0,0,0,0,0,0,0,0,0,0,0,0,0,0,0,0,0,0,0,0,0,0,0,0,0,0,0,0,0,0,0,0,0,0,0,0.006,0.335,0.672,0.765,0.327,0,0.374,0.622,1.184,1.395,1.332,1.514,1.244,1.149,1.209,1.354,0.893,1.411,1.501,1.287,1.597,1.584,2.064,1.472,1.873,1.886,1.782,1.31,0.983,0.931,0.823,0.777,0.775,0.775,0.815,0.808,0.795,0.849,0.857,0.857,0.801,0.741,0.705,0.698,0.692,0.62,0.585,0.598,0.639,0.678,0.697,0.616,0.528,0.461,0.467,0.456,0.384,0.312,0.268,0.251,0.243,0.236,0.259,0.283,0.32,0.336,0.346,0.385,0.38,0.397,0.397,0.387,0.403,0.43,0.44,0.445,0.348,0.293,0.267,0.316,0.344,0.337,0.307,0.264,0.223,0.187,0.171,0.211,0.236,0.218,0.206,0.201,0.202,0.25,0.285,0.29,0.264,0.252,0.266,0.26,0.269,0.281,0.303,0.328,0.373,0.39,0.399,0.44,0.424,0.443,0.509,0.495,0.52,0.441,0.542,0.505,0.477,0.417,0.386,0.431,0.363,0.06,0,0,0,0,0,0,0,0,0,0,0,0,0,0,0,0,0,0,0.367,0.321,0,0,0,0,0,0,0,0,0,0,0,0,0,0,0,0,0,0,0,0,0,0,0,0,0,0,0,0,0,0,0,0,0,0,0,0,0,0,0,0,0,0,0,0,0,0,0,0,0,0,0,0,0,0,0,0,0,0,0,0,0,0,0,0,0,0,0,0,0,0,0,0,0,0,0,0,0,0,0,0,0,0,0,0,0,0,0,0,0,0,0,0,0,0,0,0,0,0,0,0,0,0,0,0,0,0,0,0,0,0,0,0,0,0,0,0
0,0.012,0.095,0.115,0.154,0.139,0.098,0.094,0.109,0.117,0.157,0.233,0.288,0.288,0.302,0.375,0.318,0.266,0.16,0.325,0.322,0.36,0.373,0.356,0.478,0.444,0.555,0.456,0.513,0.468,0.474,0.534,0.544,0.559,0.464,0.317,0.372,0.448,0.57,0.7,0.723,0.732,0.568,0.512,0.408,0.443,0.469,0.379,0.298,0.289,0.318,0.36,0.338,0.326,0.314,0.313,0.304,0.283,0.275,0.269,0.226,0.205,0.19,0.161,0.117,0.094,0.094,0.095,0.105,0.113,0.116,0.125,0.146,0.151,0.139,0.137,0.137,0.145,0.145,0.133,0.143,0.163,0.152,0.146,0.144,0.158,0.14,0.106,0.107,0.113,0.124,0.053,0.03,0.03,0.03,0.03,0.03,0.03,0.03,0.007,0,0,0,0,0,0.001,0.003,0.031,0.052,0.093,0.135,0.151,0.185,0.191,0.246,0.294,0.299,0.365,0.356,0.355,0.29,0.233,0.24,0.224,0.196,0.132,0.122,0.122,0.122,0.142,0.17,0.207,0.257,0.321,0.427,0.502,0.551,0.533,0.482,0.442,0.436,0.471,0.517,0.538,0.499,0.488,0.49,0.615,0.73,0.774,0.765,0.672,0.744,0.749,0.762,0.769,0.766,0.702,0.654,0.514,0.47,0.485,0.489,0.497,0.518,0.633,0.79,0.85,0.725,0.669,0.697,1.169,1.537,1.974,2.355,2.431,2.653,2.711,2.634,2.462,2.556,2.076,1.601,2.358,2.495,1.611,1.506,1.535,1.755,1.728,1.793,1.981,1.717,1.776,1.863,1.893,2.095,2.062,2.028,1.942,1.843,1.768,1.609,1.565,1.482,1.408,1.354,1.298,1.412,1.306,1.225,1.14,0.971,0.951,0.992,1.075,1.19,1.489,1.447,1.438,1.598,1.583,1.549,1.583,1.524,1.128,1.146,1.102,0.965,0.919,0.914,0.686,0.603,0.603,0.63,0.613,0.635,0.614,0.631,0.637,0.619,0.722,0.78,0.784,0.858,0.834,0.754,0.656,0.519,0.348,0.305,0.305,0.305,0.305,0.321,0.305,0.305,0.305,0.305,0.186,0.134,0.161,0.235,0.336,0.432,0.576,0.527,0.453,0.438,0.575,0.295,0.164,0.091,0.091,0.091,0.114,0.431,0.546,0.771,0.657,0.505,0.285,0.041,0,0,0,0.464,0.04,0.037,0.067,0,0,0,0,0,0,0,0,0,0,0,0,0,0,0,0,0,0,0,0,0,0,0,0,0,0,0,0,0,0,0,0,0,0,0,0,0,0,0,0,0,0,0,0,0,0,0,0,0,0,0,0,0,0,0,0,0,0,0,0,0,0,0,0,0,0,0,0,0,0,0,0,0,0,0,0,0,0,0,0,0,0,0,0,0,0,0,0,0,0,0,0,0,0,0,0,0,0,0,0,0,0,0,0,0,0,0,0,0,0,0,0,0,0,0,0,0,0,0,0,0,0,0,0,0,0,0,0,0,0,0,0,0,0,0,0,0,0,0,0,0,0,0,0,0,0,0,0,0,0,0,0,0,0,0,0,0,0,0,0,0,0,0,0,0,0,0,0,0,0,0,0,0,0,0,0,0,0.124,0.581,0.838,0.261,0,0,0.306,0.651,0.8,0.7,0.994,1.44,1.273,1.315,1.255,1.278,1.421,1.362,1.314,1.387,1.772,1.375,1.309,1.624,1.674,1.28,1.059,1.003,0.968,0.907,0.879,0.894,1.117,1.104,1.059,1.022,0.952,0.881,0.849,0.79,0.805,0.777,0.732,0.73,0.677,0.597,0.592,0.603,0.616,0.594,0.522,0.445,0.451,0.451,0.404,0.408,0.374,0.259,0.238,0.248,0.304,0.325,0.331,0.324,0.324,0.359,0.389,0.402,0.418,0.443,0.446,0.465,0.483,0.468,0.392,0.282,0.277,0.383,0.397,0.353,0.314,0.31,0.309,0.295,0.286,0.289,0.288,0.287,0.285,0.24,0.238,0.27,0.298,0.296,0.283,0.287,0.291,0.289,0.281,0.327,0.307,0.336,0.382,0.383,0.401,0.417,0.416,0.41,0.336,0.368,0.429,0.449,0.486,0.477,0.44,0.378,0.277,0.268,0.132,0,0,0,0,0,0,0,0.082,0.133,-0.007,0,0,0,0,0,0,0,0,0.178,0.359,0.191,0.184,0.066,0,0,0,0,0,0,0,0,0,0,0,0,0,0,0,0,0,0,0,0,0,0,0,0,0,0,0,0,0,0,0,0,0,0,0,0,0,0,0,0,0,0,0,0,0,0,0,0,0,0,0,0,0,0,0,0,0,0,0,0,0,0,0,0,0,0,0,0,0,0,0,0,0,0,0,0,0,0,0,0,0,0,0,0,0,0,0,0,0,0,0,0,0,0,0,0,0,0,0,0,0,0,0,0,0,0,0,0,0.011,0,0,0,0.012,0.095
0.095,0.158,0.181,0.136,0.113,0.097,0.085,0.119,0.182,0.147,0.143,0.219,0.263,0.243,0.264,0.276,0.284,0.167,0.259,0.28,0.367,0.483,0.472,0.469,0.464,0.407,0.408,0.632,0.819,0.641,0.475,0.539,0.52,0.355,0.24,0.256,0.329,0.422,0.547,0.757,0.915,1.084,0.711,0.524,0.323,0.394,0.634,0.752,0.683,0.438,0.307,0.306,0.326,0.287,0.296,0.287,0.3,0.294,0.271,0.253,0.236,0.229,0.203,0.179,0.173,0.165,0.143,0.117,0.1,0.087,0.083,0.108,0.13,0.146,0.145,0.151,0.154,0.123,0.122,0.118,0.118,0.135,0.133,0.126,0.14,0.14,0.143,0.147,0.116,0.097,0.089,0.028,0.03,0.03,0.03,0.024,0.03,0.016,0.012,0.008,0.001,0.013,0.017,0.017,0.017,0.004,0,0.021,0.033,0.067,0.101,0.132,0.174,0.203,0.246,0.248,0.248,0.291,0.388,0.322,0.237,0.202,0.211,0.177,0.148,0.115,0.131,0.122,0.122,0.135,0.18,0.221,0.248,0.327,0.411,0.523,0.558,0.514,0.473,0.455,0.457,0.455,0.466,0.525,0.492,0.507,0.57,0.765,0.802,0.854,0.925,0.823,0.774,0.851,0.714,0.787,0.718,0.76,0.838,0.711,0.638,0.598,0.622,0.65,0.662,0.642,0.69,0.659,0.579,0.733,1.123,1.811,2.251,2.017,2.123,2.454,2.68,2.914,2.613,2.505,2.268,2.312,2.238,1.85,2.047,1.633,1.295,1.168,1.179,1.441,1.599,1.756,1.879,2.104,1.982,1.977,2.031,2.098,2.186,2.127,1.981,1.759,1.628,1.719,1.593,1.483,1.572,1.501,1.44,1.347,1.124,1.021,0.992,0.996,1.108,1.403,1.546,1.688,1.583,1.664,1.599,1.441,1.408,1.377,1.351,1.237,1.148,1.015,0.936,0.927,0.916,0.822,0.804,0.72,0.63,0.573,0.566,0.599,0.612,0.626,0.624,0.711,0.851,0.878,0.869,0.826,0.713,0.602,0.459,0.347,0.305,0.305,0.305,0.305,0.305,0.305,0.305,0.405,0.405,0.364,0.302,0.234,0.205,0.334,0.364,0.345,0.397,0.221,0.199,0.264,0.193,0.112,0.089,0.078,0.128,0.389,0.728,0.691,0.79,0.649,0.564,0.186,0,0,0,0.039,0.34,0.017,0,0,0,0,0,0,0,0,0,0,0,0,0,0,0,0,0,0,0,0,0,0,0,0,0,0,0,0,0,0,0,0,0,0,0,0,0,0,0,0,0,0,0,0,0,0,0,0,0,0,0,0,0,0,0,0,0,0,0,0,0,0,0,0,0,0,0,0,0,0,0,0,0,0,0,0,0,0,0,0,0,0,0,0,0,0,0,0,0,0,0,0,0,0,0,0,0,0,0,0,0,0,0,0,0,0,0,0,0,0,0,0,0,0,0,0,0,0,0,0,0,0,0,0,0,0,0,0,0,0,0,0,0,0,0,0,0,0,0,0,0,0,0,0,0,0,0,0,0,0,0,0,0,0,0,0,0,0,0,0,0,0,0,0,0,0,0,0,0,0,0,0,0,0,0,0,0,0,0,0,0,0.179,0.295,0.631,0.26,0,0,0.117,0.726,1.343,1.435,1.772,1.55,0.924,1.116,1.06,1.049,1.093,1.542,1.13,1.426,1.298,1.478,1.636,1.769,1.457,1.308,1.206,1.061,1.088,1.028,0.905,0.88,0.872,0.936,0.906,0.847,0.833,0.843,0.922,0.851,0.808,0.735,0.712,0.666,0.615,0.601,0.58,0.54,0.483,0.459,0.562,0.583,0.492,0.474,0.464,0.321,0.243,0.263,0.31,0.334,0.332,0.326,0.333,0.35,0.364,0.383,0.401,0.437,0.457,0.47,0.481,0.481,0.469,0.382,0.262,0.312,0.383,0.317,0.296,0.317,0.35,0.345,0.332,0.349,0.297,0.291,0.291,0.282,0.278,0.281,0.301,0.298,0.303,0.313,0.31,0.306,0.296,0.326,0.394,0.405,0.411,0.447,0.443,0.445,0.454,0.321,0.187,0.231,0.376,0.553,0.61,0.518,0.375,0.167,0.016,0,0,0.027,0.297,0.502,0.41,0.262,0,0,0,0,0,0,0,0,0,0,0,0,0.065,0.213,0.271,0.355,0.269,0.177,0.126,0.107,0.084,0.046,0,0,0,0,0,0,0,0,0,0,0,0,0,0,0,0,0,0,0,0,0,0,0,0,0,0,0,0,0,0,0,0,0,0,0,0,0,0,0,0,0,0,0,0,0,0,0,0,0,0,0,0,0,0,0,0,0,0,0,0,0,0,0,0,0,0,0,0,0,0,0,0,0,0,0,0,0,0,0,0,0,0,0,0,0,0,0,0,0,0,0,0,0,0,0,0,0,0,0,0,0,0,0,-0.008,0.044,0.148,0.142,0.095,0.158,0.181
0.196,0.172,0.189,0.199,0.148,0.131,0.085,0.117,0.136,0.13,0.145,0.254,0.341,0.307,0.294,0.48,0.211,0.38,0.6,0.526,0.6,0.541,0.48,0.46,0.454,0.457,0.432,0.398,0.47,0.61,0.665,0.713,0.432,0.247,0.221,0.218,0.222,0.249,0.409,0.509,0.536,0.378,0.363,0.264,0.23,0.12,0.235,0.491,0.794,1.062,0.707,0.36,0.266,0.244,0.209,0.241,0.222,0.226,0.25,0.233,0.205,0.199,0.172,0.171,0.191,0.177,0.164,0.14,0.147,0.133,0.107,0.093,0.123,0.127,0.14,0.158,0.187,0.199,0.215,0.182,0.127,0.117,0.12,0.11,0.12,0.12,0.106,0.078,0.082,0.106,0.032,0.003,0.01,0.023,0.03,0.02,0.008,0.016,0.006,0.016,0.012,0.022,0.03,0.03,0.023,0.005,0,0.005,0.027,0.065,0.106,0.135,0.165,0.181,0.224,0.244,0.244,0.277,0.353,0.259,0.233,0.233,0.186,0.143,0.12,0.097,0.135,0.119,0.12,0.127,0.164,0.215,0.261,0.372,0.475,0.567,0.516,0.468,0.466,0.421,0.399,0.403,0.428,0.456,0.467,0.597,0.725,0.804,0.802,0.88,0.919,0.803,0.772,0.664,0.63,0.628,0.611,0.666,0.724,0.817,0.826,0.686,0.622,0.726,0.821,0.619,0.509,0.48,0.414,0.609,0.908,1.042,1.351,1.455,1.633,2.098,2.123,2.356,2.391,2.711,2.606,2.684,2.901,2.092,1.522,1.56,1.33,1.229,1.197,1.424,1.534,1.651,1.839,2.315,2.354,2.272,2.105,2.228,2.175,2.145,2.221,2.26,1.96,1.948,1.782,1.566,1.526,1.541,1.464,1.223,1.151,1.15,1.256,1.232,1.264,1.74,1.875,2.017,1.753,1.76,1.599,1.361,1.242,1.224,1.236,1.239,1.172,0.954,0.914,0.914,0.914,0.914,0.917,0.755,0.61,0.612,0.608,0.61,0.612,0.631,0.645,0.802,0.973,0.988,0.876,0.749,0.656,0.472,0.371,0.288,0.305,0.305,0.305,0.305,0.305,0.305,0.305,0.519,0.507,0.525,0.462,0.315,0.352,0.403,0.271,0.101,0.2,0.113,0.091,0.093,0.096,0.099,0.086,0.089,0.325,0.475,0.852,0.903,0.802,0.58,0.512,0.174,0,0,0,0.083,0.228,0,0,0,0,0,0,0,0,0,0,0,0,0,0,0,0,0,0,0,0,0,0,0,0,0,0,0,0,0,0,0,0,0,0,0,0,0,0,0,0,0,0,0,0,0,0,0,0,0,0,0,0,0,0,0,0,0,0,0,0,0,0,0,0,0,0,0,0,0,0,0,0,0,0,0,0,0,0,0,0,0,0,0,0,0,0,0,0,0,0,0,0,0,0,0,0,0,0,0,0,0,0,0,0,0,0,0,0,0,0,0,0,0,0,0,0,0,0,0,0,0,0,0,0,0,0,0,0,0,0,0,0,0,0,0,0,0,0,0,0,0,0,0,0,0,0,0,0,0,0,0,0,0,0,0,0,0,0,0,0,0,0,0,0,0,0,0,0,0,0,0,0,0,0,0,0,0,0,0,0,0,0,0,0,0.131,0.346,0.03,0,0.067,0.622,0.92,1.529,1.425,1.182,0.781,1.087,1.134,0.81,1.036,1.079,1.067,1.253,1.2,1.387,1.305,1.444,1.777,1.377,1.176,1.052,1.006,0.98,0.904,0.873,0.933,0.844,0.815,0.781,0.734,0.759,0.844,0.828,0.769,0.72,0.648,0.671,0.669,0.71,0.695,0.618,0.507,0.454,0.452,0.485,0.477,0.465,0.477,0.395,0.257,0.254,0.318,0.348,0.366,0.365,0.348,0.348,0.349,0.363,0.371,0.4,0.425,0.458,0.483,0.457,0.354,0.274,0.163,0.096,0.073,0.088,0.129,0.331,0.408,0.412,0.391,0.404,0.376,0.364,0.334,0.307,0.298,0.291,0.308,0.307,0.293,0.308,0.317,0.325,0.314,0.37,0.421,0.407,0.416,0.417,0.446,0.486,0.568,0.482,0.27,0.171,0.185,0.265,0.502,0.432,0.159,0.005,0.075,0.23,0.276,0.426,0.423,0.375,0.41,0.313,0.074,0,0,0,0,0,0,0,0,0,0,0,0.149,0.349,0.372,0.318,0.28,0.247,0.189,0.207,0.15,0.049,0,0,0,0,0,0,0,0,0,0,0,0,0,0,0,0,0,0,0,0,0,0,0,0,0,0,0,0,0,0,0,0,0,0,0,0,0,0,0,0,0,0,0,0,0,0,0,0,0,0,0,0,0,0,0,0,0,0,0,0,0,0,0,0,0,0,0,0,0,0,0,0,0,0,0,0,0,0,0,0,0,0,0,0,0,0,0,0,0,0,0,0,0,0,0,0,0,0,0,0.075,0.151,0.123,0.052,0.029,0.067,0.162,0.196,0.196,0.172,0.189
0.092,0.074,0.123,0.153,0.127,0.124,0.115,0.157,0.168,0.208,0.264,0.346,0.364,0.316,0.513,0.654,0.259,0.781,0.721,0.684,0.594,0.63,0.664,0.604,0.6,0.538,0.547,0.53,0.607,0.546,0.527,0.623,0.653,0.446,0.183,0.144,0.118,0.122,0.168,0.253,0.252,0.292,0.261,0.117,0.111,0.13,0.116,0.175,0.473,0.677,1.134,0.925,0.592,0.324,0.184,0.163,0.184,0.17,0.18,0.201,0.192,0.157,0.133,0.129,0.166,0.152,0.123,0.113,0.097,0.102,0.121,0.089,0.13,0.123,0.133,0.152,0.186,0.184,0.168,0.168,0.196,0.17,0.138,0.115,0.113,0.095,0.054,0.065,0.119,0.125,0.08,0.012,0.012,0.007,0.013,0.014,0,0.009,0.014,0.004,0,0.006,0.005,-0.005,0,0,0,0.012,0.014,0.046,0.085,0.134,0.145,0.164,0.171,0.229,0.253,0.271,0.254,0.209,0.212,0.223,0.17,0.129,0.122,0.103,0.097,0.079,0.116,0.123,0.132,0.169,0.274,0.398,0.506,0.434,0.426,0.399,0.37,0.368,0.369,0.397,0.436,0.473,0.526,0.641,0.799,0.82,0.764,0.732,0.703,0.606,0.556,0.557,0.565,0.62,0.643,0.64,0.615,0.648,0.658,0.637,0.687,0.815,0.89,0.751,0.641,0.467,0.432,0.441,0.509,0.508,0.52,0.568,0.613,0.897,1.287,1.599,2.285,2.266,2.698,2.586,2.528,2.631,1.663,1.038,0.744,0.746,0.772,1.311,1.771,1.788,1.844,2.17,2.397,2.491,2.766,2.889,2.866,2.512,2.407,2.301,2.288,2.146,1.986,1.652,1.519,1.556,1.502,1.322,1.356,1.36,1.505,1.463,1.473,1.68,1.673,1.691,1.572,1.558,1.455,1.334,1.26,1.225,1.168,1.091,1.049,0.977,0.965,0.939,0.914,0.882,0.825,0.747,0.705,0.693,0.613,0.667,0.702,0.758,0.84,0.968,1.084,0.985,0.885,0.689,0.515,0.353,0.22,0.201,0.215,0.242,0.215,0.282,0.305,0.305,0.321,0.472,0.559,0.688,0.723,0.43,0.287,0.24,0.102,0.136,0.135,0.125,0.091,0.091,0.096,0.103,0.125,0.259,0.401,0.566,0.792,0.637,0.665,0.428,0.12,0,0,0,0,0,0.079,0,0,0,0,0,0,0,0,0,0,0,0,0,0,0,0,0,0,0,0,0,0,0,0,0,0,0,0,0,0,0,0,0,0,0,0,0,0,0,0,0,0,0,0,0,0,0,0,0,0,0,0,0,0,0,0,0,0,0,0,0,0,0,0,0,0,0,0,0,0,0,0,0,0,0,0,0,0,0,0,0,0,0,0,0,0,0,0,0,0,0,0,0,0,0,0,0,0,0,0,0,0,0,0,0,0,0,0,0,0,0,0,0,0,0,0,0,0,0,0,0,0,0,0,0,0,0,0,0,0,0,0,0,0,0,0,0,0,0,0,0,0,0,0,0,0,0,0,0,0,0,0,0,0,0,0,0,0,0,0,0,0,0,0,0,0,0,0,0,0,0,0,0,0,0,0,0,0,0,0,0,0,0,0,0.138,0.522,0.673,0.241,0.015,0.323,1.016,1.423,1.265,0.701,0.635,0.703,0.723,0.763,0.734,0.826,0.986,1.198,1.299,1.398,1.184,1.297,1.736,1.9,1.317,1.118,1.037,0.948,0.889,1,1.148,0.982,0.957,0.782,0.79,0.727,0.695,0.703,0.678,0.681,0.68,0.644,0.655,0.661,0.639,0.643,0.621,0.536,0.489,0.486,0.476,0.454,0.453,0.421,0.283,0.255,0.305,0.349,0.364,0.369,0.391,0.39,0.397,0.412,0.42,0.432,0.421,0.491,0.523,0.359,0.16,0.122,0.083,0.036,0.056,0.055,0.068,0.213,0.308,0.3,0.344,0.431,0.445,0.421,0.381,0.354,0.325,0.356,0.318,0.289,0.296,0.3,0.327,0.322,0.34,0.392,0.433,0.455,0.443,0.477,0.49,0.466,0.447,0.365,0.407,0.449,0.624,0.63,0.54,0.174,0.055,0.238,0.357,0.433,0.324,0.231,0.182,0.065,0.059,-0.001,0,0,0,0,0,0,0,0,0,0,0,0.187,0.38,0.381,0.337,0.299,0.273,0.176,0.186,0.198,0.184,0.071,0,0,0,0,0,0,0,0,0,0,0,0,0,0,0,0,0,0,0,0,0,0,0,0,0,0,0,0,0,0,0,0,0,0,0,0,0,0,0,0,0,0,0,0,0,0,0,0,0,0,0,0,0,0,0,0,0,0,0,0,0,0,0,0,0,0,0,0,0,0,0,0,0,0,0,0,0,0,0,0,0,0,0,0,0,0,0,0,0,0,0,0,0,0,0,0,0,0,0,0.047,0.088,0.109,0.105,0.071,0.072,0.091,0.102,0.092,0.074,0.123
